# 3D point list with one line of data per point:
#   POINT3D_ID, X, Y, Z, R, G, B, ERROR, TRACK[] as (IMAGE_ID, POINT2D_IDX)
# Number of points: 384, mean track length: 4.0218674071502951
2578 -0.0049307031222387485 2.8008075529275498 2.4734316229458191 194 169 139 0.54397089564889189 9 8802 12 8014 11 11303
2579 0.018122654024390436 2.8156351020277692 2.470961707214566 187 162 131 0.99232418884439177 9 8803 15 8615 12 8017 11 11305 14 9882 17 5504
2580 0.027551049294712956 2.8241653385685832 2.4663842155159803 149 111 75 1.3454071249528521 9 7992 16 5699 12 8019 14 9122 8 7955 7 4429
2581 -0.1229962724742098 2.8446879434727341 2.4517415982486477 184 159 128 1.9540122030159877 9 8809 12 8022 14 9888
2582 0.073823046122060809 2.8791802458469817 2.470722376354912 174 142 111 0.40612263551934191 9 8009 12 8030 11 10486
2583 -0.6277294061882025 2.9484895833921767 2.6320974323099935 172 145 116 0.41957715885670127 9 8030 16 5728 12 8038
2584 -0.72313178885440177 3.0477972931788471 2.7971416063215853 151 120 89 0.68067210560725622 9 6865 16 4724 12 8043
2585 0.75521387907878867 3.1902957826007827 3.4703352883507574 182 149 115 1.5869959676015337 16 5720 12 8058 10 1791
2586 -0.071133923987507397 3.167183388937473 2.5353333145742698 162 133 103 0.88849889483712963 9 8067 12 8068 11 10534
2587 -0.14574814201712244 3.5243620972843561 3.5047063745662324 84 148 173 0.82784682744138005 9 8106 12 8103 14 10008
2588 -1.0022280452462358 3.531523604573501 3.3659688620628163 119 84 54 0.73153546607725761 9 8114 12 8108 11 10540 10 1757
2589 -1.0022280452462358 3.531523604573501 3.3659688620628163 119 84 54 0.73153546607725761 9 8115 12 8109 11 10541 10 1758
2590 -1.0294321198473151 3.5466657028089883 3.3527366089138098 129 91 62 0.20646355230425031 9 8118 12 8110 11 10544
2591 -0.098975791359951645 3.6089545447074189 3.4922362274904994 172 184 185 0.44334621976738564 15 8705 12 8120 14 10416
2592 -1.3172292450717322 3.9145246327490661 3.17829460479979 159 129 101 1.480742968508107 9 8880 12 8144 14 10441
2593 -1.6414515595916286 4.1561466401738496 3.3130795516111338 177 181 182 1.3554379017405602 15 8866 16 5869 12 8173 14 10480 10 1268
2594 -0.80157631537419083 4.1972236971052386 3.2176075508613349 158 162 161 0.63664752288927229 16 6574 12 8181 14 10458 8 8560 7 5023
2595 -0.30442018462739423 4.2908092487614597 3.0841079370308684 137 139 138 1.026686676173133 9 8916 12 8206 14 10461
2596 -0.36502227163799922 4.4335883896800974 2.9111525404024858 140 142 139 1.2947017988266039 15 7775 16 4989 12 8216
2597 -0.38993734052648249 4.4595202546305854 2.8933785367220115 140 142 139 1.3073153587920203 9 7246 12 8218 17 8319 10 1821 7 4514 8 8126 18 3957
2598 0.17689534265610923 4.5013390933416737 2.8214014145581112 162 164 163 0.57769254453467189 16 5899 12 8226 7 4535
2599 1.0032518870546963 4.497620629926578 2.789428866920308 148 152 151 0.96368694288204459 16 5888 12 8228 17 8137 7 5089 8 8634 13 1952 1 2106
2600 -1.5591336918981225 4.6417709089304608 2.7199758529398546 189 191 190 0.73077010938231257 16 5952 12 8241 17 9367
2601 0.88923349300971244 4.6212157942404577 2.6432067639974601 157 159 158 0.92789420753360241 9 7315 12 8242 10 1862 16 5014 7 3939 8 8232 6 5397
2602 1.0000786086088636 4.6205335614522118 2.6394001842365253 160 162 161 0.58534509297915538 9 8949 12 8243 7 4605
2603 -0.20577111621425098 4.6613573418420042 2.6460302094031123 151 156 153 1.4821242609762662 9 8952 15 7852 12 8246 17 8337 7 4527 8 7462
2604 0.92058674464764534 4.6614280333086668 2.5934515577014174 186 188 187 1.5414766654823726 9 8955 12 8250 11 11490 8 8641
2605 0.35043874676091319 4.7331411753332642 2.5380358945055845 139 143 144 1.0348563202891001 9 7360 16 5939 12 8258 14 9589 10 1323 7 3884 8 7499 13 1768 18 3326
2606 0.33127136291543424 4.7378601248867573 2.5318974416732911 136 140 142 1.0789944775605809 16 5942 12 8261 14 9590 15 7830 10 1851 7 4556 18 3327
2607 0.33127136291543424 4.7378601248867573 2.5318974416732911 136 140 142 1.0789944775605809 16 5941 12 8262 14 9591 15 7829 10 1850 7 4555 18 3328
2608 -1.5276886473572819 4.7980942383954597 2.5257979306277503 181 181 179 1.4860915894889992 16 6000 12 8266 17 9855
2609 -0.22545904607494952 4.7722077638426113 2.5129846115947818 146 150 149 0.84346658293912347 15 8917 12 8269 11 11456 7 3851
2610 0.91037270493130784 4.7433913320609715 2.4901740021327519 168 168 168 0.68974246609996859 9 8317 12 8270 11 10806
2611 0.88012185709809232 4.7498479948863839 2.4852817533049478 147 147 147 1.4368213747087653 9 8319 12 8273 11 10804
2612 0.60579241262912031 4.7674074224017451 2.4852004025109045 151 155 156 0.72798831289846422 9 8330 16 6616 12 8279 11 9736 7 3926 13 1769
2614 -1.5563842071184286 4.8323798167716792 2.4882217080014644 132 133 127 1.5153647986729852 15 9692 16 6015 12 8285 17 9862 13 1612
2616 0.42765184048443011 4.8737818289900021 2.3639613024792561 153 154 156 1.3293090555899336 15 7868 12 8310 7 3913 13 1400
2617 0.36067020155995205 4.9492159623425795 2.2722305589889502 156 159 157 0.57073970797801332 16 6011 12 8327 7 4581
2618 0.65609572569196828 4.9650032583017785 2.2352713295367455 187 189 188 0.97422978801777438 9 8393 12 8334 11 10864 7 3961
2619 -1.3334750769412589 5.1407871905012748 2.1267347142327351 127 127 125 0.54395874946535294 16 6090 12 8360 13 1644
2620 0.43769896712369177 5.095503919973754 2.0905810430289775 164 164 164 0.57644797891542521 9 8429 12 8366 7 3960
2621 0.34137088671898858 5.1040921468619125 2.0839446964923285 183 183 183 0.61165840517665937 9 8434 16 6042 12 8367 10 1402 7 3954
2622 0.2028778557110254 5.119136260410925 2.0720782156786437 174 176 175 1.3244982691896723 16 5165 12 8371 11 10887
2624 0.00043559995575401462 5.1393299740689811 2.0648664232824299 149 150 150 1.1760011560678105 15 8998 12 8378 11 10866 13 1637
2625 -0.37013458488834206 5.2139880053961205 1.9900724284517319 119 120 122 0.57473642551135962 16 6092 12 8399 11 10856 10 1910
2626 -1.633007049732448 0.35514880010955485 7.8777617226042818 198 200 199 1.4546039568660671 16 6961 12 8476 13 2043
2628 0.16864666430545577 2.285962465213097 2.4234631463726504 189 162 133 0.22481972555882113 9 8741 12 8509 11 12193
2629 -0.59433434535864349 2.301205138276484 2.4583461829441622 137 101 69 0.73607425674333016 9 8744 16 6435 12 8511
2630 -0.51014741468076152 2.3327624977834218 2.3838966697166843 137 106 78 0.4653471141645647 9 8748 12 8513 11 11228
2631 -0.49173160418355577 2.3362704789271591 2.3739922354594887 159 129 100 0.38405199245906435 9 9270 16 6440 12 8515 11 11811
2632 -0.57595148983290534 2.344637187282161 2.4450651591182879 153 123 89 0.29492841904565337 16 7071 12 8517 11 10321
2633 0.23536618436651266 2.3628814677725645 2.5920822076812651 206 214 210 0.043862483481135903 9 8758 12 8519
2634 0.66521362245576809 2.3874136695000669 2.7449644754098803 173 148 118 1.2632865039416354 9 7905 12 8520
2635 -0.38138165832072785 2.4871297349445154 2.3690543125409524 138 103 75 0.50166111338513708 16 6458 12 8530 11 11254 14 10305
2636 -0.091698585193221938 2.8263467989476436 2.46493931070856 128 92 63 1.0652486018629199 9 9308 12 8544 11 11302 14 10343
2637 -0.87264425851067995 2.9286050281457916 2.9168261554166546 140 110 82 0.82890863498363654 9 8814 16 7092 12 8554
2638 -0.12651121831771625 3.5274574221092982 3.498428145991654 165 182 189 0.47274619994687078 9 8844 12 8579 14 10411
2639 -1.0581858766804035 3.5728857840774895 3.3391676897144942 124 87 58 0.6686238066288861 9 8126 12 8584 11 11331
2640 -1.0831302010936965 3.5980199078873762 3.3334642542286441 127 91 63 1.0194182137672669 9 9343 12 8587 11 11871 10 2688
2641 -0.17032130245467211 3.6235515281876571 3.5229285951073743 187 209 222 0.38807515073969751 9 9342 12 8589 11 11882
2642 -0.11321232513053039 3.9943431320358385 3.4384185085176115 130 131 133 1.1242848395680445 16 6535 12 8615 10 2716 7 5034
2643 -1.2063909426571091 4.0816814432763175 3.3799432773988638 124 128 129 0.65195294632169276 9 9371 16 6561 12 8626 11 11896 14 10665
2644 -1.935430967711921 4.0953973059431936 3.3893647939319882 154 155 150 0.78694577693301737 15 10148 12 8628 17 10177 18 4829 21 7739 22 9131
2645 -1.9188148501041193 4.1465254782835812 3.3240846402205277 192 194 193 1.3644987867868901 15 10154 12 8633 10 2691 18 4830 1 3723 21 7738
2646 0.92373499579490825 4.6160066865346785 2.6471551630669357 122 127 130 1.6350815040577971 9 8288 16 6600 12 8676 11 11480 10 1865 7 4597 8 8237 13 1958 18 3284 6 5578
2647 0.68562536918547212 4.7679133091283976 2.4787956648760847 146 150 151 0.76495634542017055 9 8332 12 8696 11 10785 10 1886 7 3934 8 8228
2648 0.68562536918547212 4.7679133091283976 2.4787956648760847 146 150 151 0.76495634542017055 9 8333 12 8697 11 10786 10 1887 7 3935 8 8229
2649 -0.80236637538708477 4.8169420024564218 2.4829069532950547 162 164 163 0.23858371986803251 12 8702 17 9817
2650 -0.86883734975604632 4.8528494098060619 2.4455856989499223 142 144 143 1.1456075888354402 16 6648 12 8709 11 11445 17 9823 10 2294 13 1777
2651 0.67568575298029954 4.8314563913115274 2.4047199046131817 164 166 165 0.7965767772806458 9 8353 12 8711 11 10814 7 4602 10 2764
2652 0.7492308559422487 4.8493291564851289 2.3758391640944496 166 168 167 0.84491580303533365 9 8995 12 8719 11 11521 7 4611 8 8650
2653 -0.72655545968699842 4.8988817475387521 2.3788038304974779 141 142 141 0.82527020194132128 9 9004 12 8722 17 9319
2654 -0.60563015048691127 5.0110277523680491 2.2449913541978948 163 165 160 0.70333543212319727 15 9680 12 8734 11 11483
2655 -0.60563015048691127 5.0110277523680491 2.2449913541978948 163 165 160 0.70333543212319727 15 9681 12 8735 11 11484
2656 -0.61339660020796893 5.0427184874755433 2.2128652205655555 139 141 140 0.54013352157470351 9 9451 12 8741 10 2314
2657 -1.3087141770427688 5.0714966797134817 2.1911049656064492 152 152 150 0.88061271999792368 16 6699 12 8744 17 9868
2658 -1.3087423821231476 5.0715229270937821 2.1918461479072864 152 152 150 1.1169984682242888 16 6698 12 8745 17 9867 13 1805
2659 0.82021474176312825 5.0220870135916096 2.1593804071953677 177 179 178 1.3012839641022642 9 9017 12 8746 8 8669
2660 -0.80199841656720972 5.0908119860278109 2.1633316989265534 185 187 186 0.49056704071971285 16 6692 12 8750 11 11488
2661 -1.0655067387388335 5.0959464206136644 2.1545500956317993 157 158 153 1.1197975898450088 9 9463 16 6067 12 8753 17 9369
2662 0.64128509326525263 5.0611768149305361 2.1238540447934704 153 155 152 0.92062992692990853 9 9024 12 8760 7 4635 11 10914
2664 0.5006446813508445 5.1011564430266931 2.0795485161483831 195 196 198 1.0151083484802741 16 6667 12 8780 11 12022 7 4625
2665 -0.22155015892867538 5.1512016137171788 2.0535994493275207 187 189 188 0.8859476908703211 9 9055 12 8789 11 10847
2666 0.5778402013424816 5.1293723686628248 2.0379761135404926 140 140 140 0.78527327605428188 9 9480 12 8790 11 11568 7 4637 13 1817 10 2381
2667 -0.19193759702523752 5.1904399868146447 2.0310028779680884 171 173 172 1.2293020632058596 16 7228 12 8804 11 11999
2668 -0.19086048917128812 5.2071383827741018 2.003607092196269 183 187 188 1.2924684924667262 16 6085 12 8808 11 9843 10 1389
2669 0.80965509878904118 5.1843180809645437 1.9623065909526951 192 194 193 1.6423672991661331 16 6053 12 8811 7 4662 13 1649
2670 0.62347324058163922 5.2051579659905025 1.9497364104664887 181 185 186 0.65537002570470837 16 6694 12 8816 7 4648 11 11590
2671 0.14380593057963187 1.0698456826542988 1.6953934273221594 160 121 88 0.27186239712755655 9 9132 12 8837
2672 -0.21404837096960677 1.9639599649150574 2.1593816891461746 164 135 105 0.98123106327032428 16 7029 12 8893 13 1897
2673 -0.60764502787829933 2.3379534782290006 2.4822143691424019 128 93 61 0.8601577651012603 9 9271 12 8920 13 1910
2674 -0.14142799126109148 2.83368531181506 2.4528537773490902 159 125 92 0.26382568716901406 16 7085 12 8948 11 12235
2675 1.2745682271289054 3.5793025053879015 3.881956440954367 156 157 152 1.0316410926880994 16 7102 12 8962 11 12263 10 2715 7 5450 8 8903 26 9942 6 5858 29 3718 28 2801 27 12002 22 9539 4 2817
2676 -0.15549423453048569 3.5505238533389063 3.5101737714062349 181 194 202 0.54781494173515399 9 9688 12 8963 14 10847
2677 -0.086871148178398971 3.5583116761180604 3.4717703136259335 159 170 172 0.96690954191975054 9 9337 12 8964 14 11104
2678 0.78559060891011889 3.7886164951392391 3.6448499254305977 135 135 133 0.62849342258277219 9 9350 12 8970 7 5447
2679 -1.3842117463597614 4.088987917162326 3.3812019421884756 150 155 158 0.84603361492225582 9 9372 12 8983 11 11892 14 10862
2680 -1.8659036318261368 4.1653247411351604 3.3029636955733261 193 195 194 1.1128818762081729 15 10549 12 8995 17 10472 10 2694 13 2160 18 4998 1 3719 21 7734
2681 -1.9070631031685281 4.1732333502905643 3.2941637989684076 189 191 190 0.94826917213825579 15 10552 12 8997 17 10475 10 2693 7 4410 8 7999 13 1938 18 4999 1 3159 21 7736
2682 0.79769825861231947 4.3985114721057741 2.9190226199092537 173 173 173 0.95733405308749653 15 9548 12 9014 10 2740 7 5461 26 9669 17 10100 29 3466 4 2815
2684 0.9686841051433478 4.5603083488279692 2.7161579031842824 114 117 116 1.1849953420942607 9 9413 12 9027 11 11958 10 2751 7 5485 8 8944 13 2180 18 4232 1 3637 6 5719
2686 -0.74409319944520858 4.7913716278901965 2.5126364602136926 150 152 149 1.226650911377416 12 9042 11 12295 17 10162 15 10187
2687 0.5778785800883155 4.7698660406894957 2.4842077446302242 164 166 165 0.94237414815360854 9 9424 15 10162 12 9044 11 12314
2688 0.86492025750210977 4.7632599400107658 2.4771378070655903 151 151 151 0.63704631138835166 9 9423 12 9046 11 11975 10 2333 7 5501 8 8956
2689 0.046845683864864339 4.8122473156014527 2.4575826558780465 188 190 189 1.2182971205113826 15 9633 12 9048 7 5067
2690 0.66037511473264887 5.0078452583102298 2.1904404496938161 164 164 164 0.76195656847306059 9 9447 12 9062 11 12014 7 5117 8 8663 8 8969
2691 0.72765127014189368 5.040900233317247 2.1465091664761458 162 165 164 1.3957237030704051 9 9452 12 9065 10 2797 7 5126 8 8976
2692 0.63439535590833895 5.0426568667409883 2.1391732803032015 150 149 145 1.0135632868282323 9 9455 12 9068 11 12018 10 2367
2693 0.51380752119368522 5.0595560375202142 2.1248515966257933 188 188 188 1.7840902433303232 16 7191 12 9069 11 12346 7 5103
2694 0.26890711261230982 5.112009070843591 2.086178293793048 186 188 188 0.89511073975829114 9 9785 16 6678 12 9074 11 12015
2696 -0.38135419110825053 5.1477242691312792 2.072821683029483 171 173 172 1.3664756807365566 15 10222 12 9076 11 12319 16 7556
2697 -0.8320135843425075 5.1938701133233627 2.0503511431656647 180 182 181 1.2057655931110449 16 7236 12 9084 1 3184
2698 0.20619180595516051 5.1559363816301262 2.0260771937010116 163 165 163 0.68116112076138469 16 6690 12 9085 11 11555 10 2364
2699 -0.81188500387265994 5.1964813532842129 2.0447255305484608 117 118 120 0.436898426125369 16 6720 12 9087 10 2759
2700 -0.81188500387265994 5.1964813532842129 2.0447255305484608 117 118 120 0.436898426125369 16 6721 12 9088 10 2760
2701 0.54705208892141144 5.1644681165919275 1.996597902755419 186 186 186 0.66849301062636168 16 6054 12 9091 10 2798 7 5124
2702 -0.39828898159052317 5.2253192701496589 1.985522216066993 150 152 150 0.33650008421813526 16 7568 12 9097 11 11993 10 2771
2703 -0.43470694297863449 5.2403957153927259 1.9674644873909277 145 150 147 0.48880830587617768 16 7243 12 9100 11 11997
2704 -0.43470694297863449 5.2403957153927259 1.9674644873909277 145 150 147 0.48880830587617768 16 7244 12 9101 11 11996
2705 0.59074901230468069 5.2107234893565222 1.9403634378280608 153 155 154 0.85958468490596918 16 7224 12 9103 11 12041 10 2811
2706 -0.020796602730091152 3.7606692467950928 3.4653136250597441 117 119 118 2.7834797069921975 9 9352 12 9235 17 10415
2707 -1.9992608911898821 3.8645678839883053 3.6666739774108055 143 144 138 1.3035373651772235 15 10804 12 9236 11 12242 17 10851 7 5383 8 8836 1 4403 21 8072 20 3410
2709 0.86863607325784498 3.9076536179715111 3.5041100613183129 161 161 161 1.1059209430511221 9 9921 12 9240 10 3345 29 3706 28 2963
2711 -1.5034707767354474 4.1241531110108056 3.3537296546960098 113 117 118 0.49091403435288655 9 9717 12 9249 11 12250
2712 -0.62486468784421056 4.1151714799665102 3.3186282259072213 155 155 153 2.5916591227681582 15 10527 12 9251 11 12493 17 10434 8 8883
2713 -1.9468570581043938 4.1685362789241989 3.2986402222449502 154 156 152 1.1635130547815415 15 10817 12 9253 17 10686 10 3326 7 5394 8 8849 13 2375 18 5150 18 5270 1 4148 21 8071 5 2250 23 4898 22 10092 25 9624 19 1349
2714 0.25796771784615402 4.2865863166143896 3.0745912862980851 153 153 151 0.49664794247894484 9 9939 12 9264 11 12505 17 10424
2715 -0.55474451131733737 4.5607319904028598 2.7831659070856616 157 161 161 0.64067421857735118 9 9740 12 9267 7 5042 8 8583
2716 0.96274137728064446 4.6842060564104235 2.5741369883814467 186 188 187 1.4177042950558585 9 9751 12 9271 7 5867 8 9340
2717 -1.5974012531310633 4.7961842423127887 2.536139863947378 165 165 163 1.3803877277017609 16 7537 12 9273 17 10484
2718 0.84241284307838638 4.8753661764486491 2.3402567413603323 196 198 197 1.2262008698152125 9 9761 12 9283 7 5509
2719 0.52999136944148884 5.0957701522394636 2.0813608783633923 187 189 188 1.1932129041628523 9 9784 12 9304 11 12547
2720 0.59922468368173287 5.1268672343845383 2.0517871143504101 191 193 192 0.7806905799167817 9 9789 12 9307 7 5516
2721 -0.37755946102147425 5.2030179299188406 2.0047033671511634 195 197 196 0.60830324965432281 16 7562 12 9316 11 12325
2722 0.83273147923247581 5.1697493624635467 1.9770021326780414 197 199 198 0.88200351200992189 16 7208 12 9318 11 12361 7 5522
2723 -0.31849116311576675 5.2201313625538113 1.9916581929144883 187 192 189 0.48033868257040035 16 7565 12 9319 11 12335 10 2778
2724 -0.45262884883911431 5.2340652152060887 1.9710797278368655 186 187 188 1.2973110805512909 16 7241 12 9321 11 12330 10 2770
2725 -0.022715985419907287 1.7177269680050733 1.976403159115991 87 56 47 1.0590165997861594 9 10034 16 7427 12 9380
2726 -0.12253406546908331 3.5625267628123338 3.5022473308471169 62 140 170 0.49039264836465662 9 9912 12 9418 14 11105
2727 -1.8512478271516015 3.8869279128423337 3.6388670633536653 169 169 161 1.8445590437957537 15 10997 12 9426 17 10940
2729 -1.9208694098224697 4.1993146150688503 3.2671984463600774 182 186 185 0.66233399606701648 15 11007 12 9436 17 10947 8 9120 21 8198
2730 0.9492176476741031 4.6649216903968291 2.592379869995757 154 156 155 1.2612721044259529 9 9949 8 9338 13 2388
2731 -1.5217219874265251 4.8345168708636619 2.5029896269226608 187 188 186 1.3644114959102576 15 10837 16 7776 12 9455 17 10694
2732 0.55284076184192821 5.1777927600845466 1.9797069577229047 146 146 146 1.19232078818281 16 7781 12 9476 11 12719 10 3396 1 3674 5 2166
2733 0.55367934045582279 5.1785507432082234 1.9810180455341768 146 146 146 1.0581729041525407 16 7782 12 9477 11 12720 10 3397 7 5872 13 2530 1 3675
2734 0.63362499518213733 5.1828716952892462 1.9710988245797685 168 168 168 0.61669066869546774 16 7783 12 9479 11 12551 7 5730
2735 -1.6827066241671078 1.8913382146013678 5.9950311150333579 192 194 191 1.6459236385150611 16 8004 12 9548 13 2674
2736 -1.6826599656703567 1.9741007538491331 5.9331876246350594 157 160 153 1.2576275654174629 16 7871 12 9549 13 2584 5 2981
2737 -0.021750153856733619 2.6572794376241315 2.4904302316853077 186 157 125 0.40445511018927655 9 10063 12 9557 11 12633
2738 0.028295254569292626 2.6586050819289664 2.5409815290795117 162 122 87 0.94052471616306421 9 10064 12 9558 11 12881
2739 -0.8322433102372766 2.7625005680797385 2.7510646661452198 163 143 118 1.8911960498375238 9 10065 16 7885 12 9560 13 2609
2740 -1.0218845346150847 4.0800509442830455 3.3653264806419001 142 142 140 0.49083901950152881 9 10092 16 7751 12 9582
2741 -1.5331551696994579 4.787993206210559 2.5367677753701949 149 149 147 1.2986678932779678 15 11150 12 9600 13 2512 1 4419
2742 -1.5331551696994579 4.787993206210559 2.5367677753701949 149 149 147 1.2986678932779678 15 11151 12 9601 13 2513 1 4420
2743 -0.32286220115009134 4.8578212397351388 2.4186043825407486 178 180 179 1.4325576931006232 9 10118 12 9605 11 12692 17 10666
2744 -1.5688633393970917 4.897059751854421 2.4181727244423556 158 160 157 1.639126467292308 16 7930 12 9606 13 2516 1 4156
2745 -1.3761966936672931 4.9821768691038448 2.3049707310224798 163 163 161 1.1741858097954605 16 7936 12 9611 17 10866 13 2520 1 4155
2746 -0.10242450722603162 5.1413093124437141 2.0714868438982235 185 187 186 0.87627066523790853 9 10124 15 11032 12 9621 11 12704 13 2526
2747 0.15672947078940702 1.6318490794590352 1.9873112350018021 83 131 207 1.3180423918210897 9 10164 12 9663 11 12865
2749 -0.61046464117674581 3.8473574582024526 3.6059344406006706 104 110 108 0.49263759264886947 9 10202 12 9696 11 12890
2750 -0.60441454596124955 3.906575728526025 3.4860982896752875 147 149 148 1.6706775297360574 9 10204 12 9698 10 3509
2751 -1.3731328239070291 3.9087282935732497 3.1564774184652045 167 137 111 1.0599212297015062 9 10206 12 9700 11 12798 14 11421 16 7902 13 2624 15 11000
2752 -0.94955327309909321 5.1000777113899325 2.1517734717713091 161 161 158 0.88296869131378208 16 8075 12 9716 1 4416
2753 -0.94955327309909321 5.1000777113899325 2.1517734717713091 161 161 158 0.88296869131378208 16 8076 12 9717 1 4417
2754 0.16549988792457215 5.1448187339886733 2.0459673403278198 189 191 190 1.4363208591676819 16 8074 12 9721 11 12840 10 3664
2755 0.59118580130183707 5.1846432934849211 1.9731570028861758 188 189 189 0.68403559647997747 16 7941 12 9724 11 12846 10 3551 1 4114 5 2474 10 3669
2756 0.25952153229548686 1.2173107155141865 1.7034531413856304 186 157 127 1.4056839311495035 9 10260 13 2748
2757 0.093296482517801468 2.1786675702954348 2.302755296469182 133 90 56 0.33368817243647347 9 10275 12 9750 11 12942
2758 0.78715134920881003 3.7624001305328694 3.6712811377136156 142 142 142 1.5208365942399258 12 9771 11 12970
2759 0.24821711131800234 4.4375220204645949 2.8969524831487581 195 196 198 1.3396648682439041 9 10363 11 12975 7 6151
2760 0.82113177379858782 4.8344557132784471 2.3968862157086046 194 196 195 1.3203142424347596 9 10310 12 9783 10 3740 8 9598 13 2706
2761 0.038700193714158337 4.9098696322745008 2.3359204569464653 201 202 204 0.49479164747834048 9 10313 12 9785 11 12900
2762 0.28873892947629259 5.0762880550707701 2.131423427149473 192 194 193 1.4070127804318737 16 8069 12 9790 11 12903
2763 0.62752707817846709 5.1108084977682298 2.0662370218823156 188 189 191 1.0668347654351495 16 8152 12 9792 11 12982 7 6155
2764 -0.062461139733755847 2.2645674540782732 2.315736348086614 161 116 83 0.69466333615113618 9 10339 12 9830 11 13004
2765 -0.17317377739047041 2.7566211836879306 2.4583019226781815 151 122 90 1.3439739066073415 9 10385 12 9835 11 13011
2766 0.18518661106370854 1.2109840316434803 1.7282112422283242 63 64 68 1.1798021628690369 12 9863 13 2828
2767 0.15110772327166666 1.3017263897026665 1.7238022971799158 208 186 162 1.2603876941892767 9 10370 16 8210 12 9865
2768 0.65053065075015859 3.6260842986721666 3.310262031714188 195 175 151 2.0678182325809176 9 10356 12 9884 11 13059
2769 -1.0370310964511402 3.9284693490510612 3.3055220540724704 168 148 124 1.6148770069878224 12 9887 14 11517
2771 0.58020298605182996 2.1355918500966311 3.0666221292654985 164 127 98 2.3985967808269306 9 10491 12 9961
2772 -0.8458681058594727 4.8240394054191951 2.4751762821818932 184 186 184 0.81617756205531244 9 9431 15 10192 12 8703 15 9655
2773 -0.23822565381679028 1.0709192990147567 0.94960729120801146 218 219 211 1.8719966884823056 9 9974 12 9334
2775 0.10644565639719117 1.8226687627455709 2.0837617071335481 120 76 48 0.39351915483817901 12 556 11 115 8 2673 7 132
2776 -0.33017207662461684 1.9395160477082836 2.1974303316755712 132 102 74 0.73379096535324784 9 3487 12 4675 11 152
2777 -0.029994187602015835 1.9909072220058779 2.1474258689885057 160 129 101 0.4025704425690339 12 950 11 316 14 974
2778 -0.21728332260536218 2.3333375188494592 2.3006766515178763 176 145 116 0.28166467373196691 12 2079 11 1172 14 2189
2779 -0.026415051646949416 2.3635079565645127 2.3347106951036811 187 158 126 0.87710673507875347 9 573 11 1421 8 418
2780 -0.3944453865082076 2.4892814790620612 2.3753850732265347 169 135 107 0.69410046717837037 9 4241 12 2422 11 1541
2781 -0.39483235320678067 2.4887693019605828 2.3771966206699378 169 135 107 0.78773137545308325 9 4240 12 2421 11 1542 14 7120
2782 -0.3488726165004335 2.5005606128921172 2.3695053674404472 171 141 113 0.4316774407505431 12 2435 11 1610 14 2649
2783 -0.36963144908847945 2.5359145174957654 2.3824054268246067 161 130 101 0.39291970855982977 12 2497 11 1681 14 2744
2784 -0.34795512329363343 2.588821019145886 2.3866294798601206 120 84 58 0.27130300266878288 12 2557 11 1821 14 2861
2785 0.092487040261085396 2.748880133013925 2.498756807632553 206 174 140 0.32289986974999302 9 1110 11 2438 7 565
2786 -0.10967174168670227 2.9067850219318156 2.4625036932172555 198 163 131 0.3127990124754278 12 3149 11 2680 14 3723
2787 0.18898367715024578 2.8820611536246452 2.5006181241620751 199 164 132 0.68911582680932537 9 1373 11 2823 7 1771 8 6020
2788 -0.09289497704253942 2.9730559955639815 2.4730790993171321 179 150 119 0.54906218732293455 9 1617 12 3316 11 2859
2789 -0.10203842591704956 3.01459666785389 2.4814054768910516 130 101 69 0.18306722622743463 9 1739 11 2951 14 4080
2790 -0.10203842591704956 3.01459666785389 2.4814054768910516 130 101 69 0.18306722622743463 9 1738 11 2952 14 4079
2791 -0.13463538495279165 3.0295189392379145 2.4876182061562351 180 151 121 0.36965171008740549 9 1778 16 1526 11 2972
2792 -1.9569069040408906 4.0182730657065973 3.4824235781760819 129 130 124 1.0461145856052712 15 6076 11 3692 17 8549 18 4064 12 7372 21 6213 22 5450
2793 -1.1668525332990605 3.83221440980659 3.2048526341355248 125 90 66 0.33816437651992959 9 2801 11 3772 14 8313
2794 -1.1668525332990605 3.83221440980659 3.2048526341355248 125 90 66 0.33816437651992959 9 2802 11 3773 14 8312
2795 -1.2471297699782025 3.8596514071448782 3.1879337716085621 162 128 103 0.47195061280203798 9 2845 16 1952 11 3785 14 8338
2796 -1.8424283476170999 4.1489483846791853 3.3221127630652409 141 141 139 1.2790656901893001 15 6163 11 3932 17 8560 18 4051
2797 -1.8255120763528205 4.1470646686292323 3.3258380028860808 150 150 148 0.9339231901558871 15 6157 11 3935 17 8558 18 3509
2798 -0.1021151728767609 3.6699559246485478 3.4928379485934866 98 121 134 0.43831025363969678 9 2528 11 3944 14 8156
2799 -0.67887848516850668 4.0650875661186507 3.3733715165458578 145 148 150 0.59398117024397068 9 2965 11 4096 14 5719
2800 -0.88140322468209098 4.2991319987673426 3.104323555044771 149 153 152 0.51047028566346775 9 3101 16 2136 11 4147 17 3883
2801 -0.89765251007306168 4.3150647192387508 3.0871876957548814 174 177 175 0.59265201037704163 9 3107 12 3716 11 4149 17 3899
2802 -1.131586707858441 4.5350631164834336 2.8336047455189974 128 128 125 0.65791058188440754 9 3213 11 4197 17 6935 18 2516
2803 -0.55059583534872325 4.4618331396673412 2.8954620093577557 125 125 123 0.63404178889586382 9 3167 11 4218 14 5880
2804 -0.55059583534872325 4.4618331396673412 2.8954620093577557 125 125 123 0.63404178889586382 9 3168 11 4219 14 5879
2805 -1.2542741016721961 4.6609591632172593 2.6895607650400954 131 131 129 0.20480871929441516 9 3274 11 4223 17 7008
2806 -0.55921207865484557 4.566474985936134 2.7734751413452439 177 179 176 0.87266704065518719 9 3226 11 4258 14 5888
2807 1.4251463102195654 4.1197708558386594 3.2243078292786111 173 173 171 0.81651298097623604 9 3003 11 4280 8 6541
2808 -1.0131365961706782 4.7574376849470497 2.5642550548120071 156 157 152 0.26475642164638674 9 3301 11 4290 17 6962
2810 0.87369576817801931 4.3737319284686196 2.9430544911586454 187 187 187 0.5413930235646478 9 5633 11 4351 8 8191
2811 -0.33704799494698279 4.836020543521486 2.4444716572666501 133 133 131 0.63382235888551808 9 3327 15 6326 11 4444
2812 0.67253234912204352 4.6010890066829928 2.6804660264710525 124 124 124 0.74537255017150938 9 5714 11 4470 7 2985 8 6506
2813 -0.48774624691953478 4.9919541375378262 2.2669140280732707 165 165 163 0.70298026167194727 12 6240 16 2356 11 4543
2814 0.62530806998155319 4.7672631939434034 2.4884826173002654 182 184 183 0.8476572991401814 9 3305 11 4593 8 6545
2815 -0.30977479496875771 1.9627242027013789 2.1923041935037451 131 104 74 0.24997750554954198 9 6092 11 5185 13 1331
2816 -0.44382984894666411 1.9869100451061579 2.2579765492597788 131 103 79 0.48449603555918536 9 3533 12 990 11 5191
2817 -0.2422322216504188 1.9813422532185327 2.1695501523713867 182 151 122 0.39433073777766586 9 3520 12 941 11 5229
2818 -0.42552396917921598 2.0125547361484335 2.2501664250568023 166 136 110 0.6847119214250007 12 1064 11 5233 14 1196
2819 -0.52316892895317502 2.0552851658288613 2.3290734844755256 132 101 72 1.1532045317735158 9 3609 11 5282 12 4867
2820 -0.4561254287417349 2.0894486611172192 2.2773580075788327 135 102 74 0.53675462599150292 9 3650 11 5376 13 1028
2821 -0.25524864162833816 2.0662463198645389 2.1924882709172673 164 131 103 0.7165172092261165 9 3598 11 5387 13 507
2822 0.39511905681273052 1.9856217936560829 2.2366537458779767 128 80 46 1.1141523844299828 9 3534 12 959 11 5490 7 3567
2823 -0.19503322686750363 2.1325833972459942 2.208102539071449 161 126 98 0.39278062404461966 9 3700 12 1470 11 5511
2824 0.014489332150002291 2.1710874874439257 2.2545433359157458 115 81 49 0.49311277085314398 9 3769 12 1597 11 5698
2825 -0.0038289111907734309 2.1891117317631901 2.2621630261271095 133 98 70 0.33068703354352053 9 243 12 5102 11 5731
2826 -0.33616251353338861 2.2918699610840898 2.2932155448746609 117 82 55 0.75828911394329335 12 1970 11 5787 14 2100
2827 -0.31930802806810432 2.2883440128654167 2.29030284513592 117 86 58 0.34927737742596804 9 3949 12 1957 11 5789 14 2086
2828 -0.28009009274298585 2.2984382556847218 2.2898834596890745 171 140 111 0.85356631063535771 12 1990 11 5840 14 6885
2829 0.050190598688714054 2.2607616550475713 2.3182655934020686 132 97 65 0.99806934277438086 9 364 12 1882 11 5925 7 1240 8 3095
2830 -0.089219402361331995 2.3326689733804167 2.3052429597549717 193 169 141 0.40494514793640785 9 4015 12 2064 11 6007
2831 -0.30718537323142153 2.4141023146164309 2.3304971189965222 107 72 42 0.51430261121179333 9 4145 12 5379 11 6078
2832 0.015412572952511241 2.3576730923886924 2.3511754107820604 144 112 82 0.37781149557142762 9 4060 12 2134 11 6114
2833 -0.048038705163549918 2.3840066937636508 2.3332941528119058 142 113 81 0.44966179387958022 9 606 11 6135 8 3179
2834 -0.072008943444575799 2.4054304493964938 2.336562493197655 187 158 128 0.36685830696249999 9 651 12 2262 11 6156
2835 -0.053338829929257224 2.4057673793762833 2.3446161843351585 127 94 65 0.3661194291902487 9 652 12 2266 11 6164
2836 -0.06742494989475796 2.4153985371715199 2.3403310863609015 142 109 78 0.87955596023362981 9 681 11 6172 8 5541 7 377
2837 -0.12438569869882432 2.610354194477257 2.413614343441826 134 99 69 0.43986073397216591 12 2588 11 6407 8 3369
2838 -0.067039821766013405 2.6490926763046923 2.4585629672747977 180 148 114 0.82563656194047286 12 2673 11 6455 7 1539 8 3456
2839 -0.15172506481341408 2.6707696802300029 2.4200737681914548 192 161 130 0.46400968842972046 9 989 12 2709 11 6458 8 3420
2840 -0.30544108343703613 2.7688574625670999 2.4295502634267576 119 82 55 0.86332594757094894 9 1150 12 2904 11 6512
2841 -0.032654396149818993 2.7009644289449843 2.4847179742155223 114 80 49 1.0170626286738997 9 4430 12 2769 11 6515 7 2761 8 5807 6 2209 27 2030
2842 -0.1072559774076072 2.7334877620061158 2.4553880790530722 128 94 66 0.15714873811579072 9 4467 12 2827 11 6536
2843 -0.074052983538227909 2.7390223707573575 2.464221116550354 119 84 54 0.35096121396857272 9 1097 11 6554 8 5811 7 1597
2845 0.005728438873680082 2.8203592010581788 2.4705130037859862 112 77 45 0.43621880814541331 12 5681 11 6670 14 7406
2846 -0.13927476628248747 2.8644964913752746 2.4561895654472949 193 168 137 0.35860994776103694 12 5736 11 6683 14 3577
2847 -0.037162176971176603 2.8769924929991881 2.4587521719624732 169 135 100 0.90729027802943019 12 3071 11 6740 7 580
2848 0.16444287673233857 2.8315813569812796 2.4958100204577951 181 138 104 0.44662280085036254 12 2994 11 6750 8 3765
2849 -0.18608929954017031 2.9269302295075024 2.4712381271300496 174 149 119 0.04373573515609365 9 1489 11 6757
2850 -0.39170936519977234 3.0204189976872158 2.5376484387067366 139 112 85 0.55609328362895161 9 4874 11 6794 14 7741
2851 0.057257524796268965 2.896214861177338 2.4647037601505075 168 137 108 0.26560295401408035 12 3129 11 6798 14 3612
2852 0.12156234607551253 2.8924375507819033 2.4767255572535012 184 150 115 0.31395716950378055 9 1403 12 3118 11 6825
2853 -0.025044077723223399 2.935256968132812 2.4676066343634067 187 158 128 0.41638195017138518 9 4755 12 5807 11 6828
2854 0.021198850203279124 2.9248976185968365 2.463565921117469 179 148 117 0.60835987879308706 12 3196 11 6836 14 3733
2855 0.16547038827901953 2.9008817951903132 2.490736647181846 128 93 65 0.80868251961338422 9 4688 11 6855 7 2853 8 7187 9 6783
2856 0.15908470920802811 2.9003347671370872 2.4849884686666539 190 161 129 0.57092634355206062 9 1418 11 6856 7 1768
2857 0.16093925819976268 2.9170495603413373 2.4930785775632978 193 164 132 0.49927686332921367 9 4727 12 3167 11 6879
2858 0.041599829710737744 2.953293077382968 2.4659128223622089 177 148 118 0.35972007473575074 9 1577 11 6885 8 3796
2859 0.17196975875751444 2.9311174434813054 2.493293471212644 182 153 121 0.3477555877396285 9 1496 11 6902 8 3877
2860 -0.038841032743973797 3.0089809965839058 2.4768197966130381 137 107 75 0.44459206198615986 9 1723 11 6923 14 4043
2861 0.12753126913211971 3.0135156137406525 2.4916120368196517 192 161 130 0.080633113692493139 9 1731 12 3383 11 6970
2862 0.059818678558233099 3.0571287437033017 2.4943239559441004 183 154 122 0.36413340554030449 9 4931 12 5916 11 6998
2863 -0.090330723303207752 3.1062067460241973 2.5075142154156116 128 95 64 0.61562349002944738 12 5943 11 7002 14 4343
2865 -0.21615644051111618 3.5881528685069348 3.519983526380198 144 178 203 0.98363528132724298 9 2433 16 1724 11 7290
2866 -1.4290741554073425 3.9098833270085289 3.1477892569911328 124 87 61 0.65294654121304851 9 5478 11 7315 14 9522
2867 -1.2404928514459901 3.8639974368940986 3.1887166928138995 124 88 64 0.74333415201276276 9 5442 11 7321 14 9498
2868 -1.3393200822096121 3.8956129498987839 3.1673735751372893 129 97 72 0.85559987187066955 9 2897 11 7328 14 5714
2869 -0.20729119393278181 3.6251870647144817 3.5264989158647624 183 214 233 0.59870871988151375 12 3686 16 1748 11 7336
2870 -0.16171832124829597 3.6124313120234453 3.5187362933490101 179 198 213 0.3899474111121759 9 5251 15 5680 11 7339
2871 -1.3206748134955453 3.898947575109704 3.1674857447789915 131 96 74 0.79013578536432638 9 5470 11 7340 14 9510
2872 -0.14567726971184489 3.6106316507140135 3.5142087128279758 172 195 210 0.48830328331205503 9 5245 12 3685 11 7341 14 8128
2873 0.8654356390067357 3.3004194202712265 3.431552445284026 145 109 79 0.55345199745766072 9 2043 11 7344 8 6370
2874 -1.0218490102633913 3.8428954321838256 3.2615748743342396 130 99 73 0.38237639492004272 12 3698 11 7356
2875 -1.6643891920909817 4.1400607156302156 3.3325341149934919 171 171 170 1.1113225321666895 12 3709 11 7418 14 8471
2876 -0.85813165130093605 3.967386156240007 3.4982722536155295 73 75 72 0.50718761042067417 9 2869 16 3647 11 7428 14 8331
2877 -1.7852178875529234 4.2060429489321187 3.2517591739395968 146 146 144 0.50475521225389508 12 7389 15 6191 11 7432 17 6994
2878 -1.7852786117613901 4.2066685266042585 3.252006172351686 146 146 144 0.2705092458755865 15 6192 11 7433 17 6993
2879 1.6011328135285481 3.4432881202654291 4.036207696259499 130 131 129 0.42885395975499091 9 2117 11 7490 8 6455
2880 -0.20903510434889733 3.9101969007392841 3.5408662424129349 120 121 123 0.41153763580417113 9 5416 11 7498 14 5449 17 6456
2881 -0.40996034583369939 3.96757445507648 3.4785977361467184 133 135 134 0.90821587484993904 9 5458 15 5836 11 7503
2882 -0.48409981092329973 3.9976057495940087 3.4488245608258801 125 127 124 1.0011139721818154 15 5853 11 7510 14 8311
2883 -0.077932809352177002 3.9513888703287394 3.4840390296336357 93 95 94 0.63321195625266236 12 6067 15 5803 11 7551 14 5467 17 8198 7 3808 8 7380 18 3333
2884 -1.3457740862613596 4.2976603755493956 3.1269142857588013 158 160 157 1.0377856255498463 9 7208 11 7573 14 10131 17 8511 21 6131
2885 -0.34275646331395559 4.0761419703448851 3.348040845456167 124 124 124 0.65945672906134267 16 1976 11 7584 14 5656 17 6527
2886 0.86293822629561401 3.8651963193792662 3.5535051912218489 131 131 129 0.31533156762639986 9 5385 11 7598 26 7656 8 7464
2887 -0.88492107895821948 4.3221789606284959 3.0824629899215821 173 175 174 0.8541419045998937 9 3111 11 7602 17 3895 14 8484
2888 0.83936402569195967 3.9038888059454515 3.5096817014889918 143 143 141 0.51097271594796201 9 2771 11 7606 8 6440 27 6315
2889 -0.0063326492409703124 4.2075175099301489 3.1776746655406276 112 114 111 0.65944479988085247 9 5569 15 5912 11 7629
2890 1.5033150978001339 3.8879285840795275 3.5026705832126237 130 130 130 0.78620665196608475 9 7089 11 7639 8 7503 27 9439 6 5097
2893 -1.291557846103355 4.6529157964327039 2.7026111460527824 156 156 154 0.16097799127536572 15 6346 11 7652 17 4177
2894 -1.0995556154003725 4.6264164927896481 2.7232011336933541 160 160 158 0.50010040599630146 9 5732 15 6309 11 7660
2896 1.3340446408342916 4.093769032372097 3.2630285364600495 120 120 118 0.88936284247589847 9 5514 11 7701 8 7523 6 5411 27 10716
2899 0.57508655330920511 4.3565722786621457 2.977569815768125 137 137 137 0.46458454297420243 9 3123 11 7730 8 6465
2900 -1.0426722561904049 4.7684179096579449 2.5505568247893673 120 120 118 1.2375646276300201 15 6377 11 7737 18 2523
2901 -1.0426722561904049 4.7684179096579449 2.5505568247893673 120 120 118 1.2375646276300201 15 6378 11 7738 18 2522
2902 1.0321838501883422 4.3222889789351058 2.9998728954791618 126 126 124 0.48353282035409401 9 5612 11 7769 8 6513
2903 0.58440843205287429 4.4490002389190906 2.8669025238463668 124 124 122 0.62665372118437157 9 3160 11 7773 14 5810 8 4972
2904 -0.59492858135569049 4.7707090845779216 2.5376822007438968 135 137 134 0.61497045881127377 9 5792 16 5069 11 7787
2905 -1.0087880527695379 4.8933065284223991 2.3988769027816823 142 143 140 0.92780441546548909 12 3801 16 3918 11 7798 17 7019
2906 0.59979817582167394 4.5059492839947985 2.7971354707634317 184 184 182 0.84926073658518275 9 3198 11 7807 8 4975
2907 -0.64395040311677454 4.8244584835998623 2.4675271085535928 120 120 118 0.41424657818586352 9 5815 11 7810 17 6890
2908 0.60574590368243963 4.5209757965729551 2.7798951259084466 121 121 121 0.83407781530242064 9 5683 11 7814 8 7496 7 2979
2909 1.0859508800856932 4.4026641103584208 2.9020236803795494 118 117 117 0.55281795218894036 9 5644 11 7816 8 7552
2910 0.78954156413333476 4.5416167574347499 2.7443784388643913 106 108 107 0.61837610366392604 9 5694 11 7848 6 5077
2911 0.7766050331969675 4.5474312481629555 2.7391219540186027 111 113 112 0.54634235575413492 9 5696 11 7849 8 6522 6 4596
2912 1.1510437343300379 4.4880454090784525 2.7952757426381067 155 155 153 0.56576418950675178 9 3185 11 7881 8 6567
2913 0.76489161377999004 4.6158590983527299 2.661886651300541 152 154 153 0.72510349500189053 9 5725 11 7903 8 7537
2914 -0.066374597869593821 4.8259612021570959 2.4401633070405815 187 188 185 0.68445973600402044 12 8291 11 7907 7 2970 15 6297
2915 -0.056733858126346216 4.8243680026903375 2.4424836151878195 182 182 180 0.32981733944296271 9 3323 11 7908 14 8539
2916 0.062533466753945957 4.7948899600554551 2.4666530194331631 172 173 174 0.92005508977240025 9 5811 11 7909 14 9596
2917 1.2099013167793102 4.5726088394633075 2.6877511557150791 148 148 148 0.53234881568165215 9 3233 11 7961 8 5022
2918 0.45912419452913489 4.7763580437049242 2.4815434463209662 129 131 128 0.87778317058113176 9 5804 11 7968 7 2986 15 6224 8 7515
2919 0.45911179621185255 4.7762416912848966 2.4815316038607 129 131 128 0.77717316620408605 9 5803 15 6223 11 7969 7 2987 9 7391 8 7516
2920 0.94600180706968351 4.6518104860528329 2.6061789248483542 130 130 128 1.2476886933039602 9 5751 11 7972 7 3018 16 3806 8 7581
2921 0.93939713573320249 4.6561373980418113 2.6028225897163049 180 180 178 1.6852355648515474 9 3275 11 7975 7 671 8 6569
2922 1.2369436232626414 4.5827470422738994 2.6776868964400431 131 131 129 0.89047983367205097 9 3240 11 7983 7 3044 8 6597
2923 1.2071055331400147 4.5903575463857731 2.6638887278593981 183 183 183 1.1750631726088043 9 3246 11 7986 8 6593
2924 -0.78813261673603774 5.1028479197872931 2.1384112733640168 116 116 116 1.2447513987172854 12 3876 15 8054 11 8007
2925 1.2138677439608494 4.6272056951239726 2.6279474646347514 148 148 146 0.97886706628744447 9 5738 11 8033 8 7631 7 3047
2930 1.1740858358205744 4.7626189964847772 2.4608491491451714 142 142 142 0.83864711037434281 9 7376 11 8117 7 3068 8 7648
2931 -0.2331211434582397 5.1480507000269373 2.0786092208883695 179 179 177 0.29994955004857488 12 6322 11 8143
2932 0.68154947143532418 4.9396841655157822 2.2670357334983198 187 187 185 0.92477004916454253 12 3830 11 8163 7 1923 8 6582
2933 0.4770371608793435 5.0091208677802754 2.1935369858795388 139 139 137 0.85188407771769503 9 3350 12 6264 11 8171 7 1917
2935 0.97673322745019331 4.9391533994053525 2.2585021876221165 159 159 159 0.56190354268616571 9 5836 11 8219 7 3072 8 7650
2937 -0.34091211816607653 1.8912131206530596 2.1927894068966483 122 89 60 0.74370996778451415 12 7855 11 8530 9 8655
2938 0.047559129172357453 1.8496398920825676 2.06590492623444 163 120 85 0.34117236975956988 9 6004 12 4505 11 8535
2939 -0.30292844420150311 1.9440195521379551 2.1848941957722503 176 149 120 1.113769750963808 9 6070 11 8554 12 6760 14 8759
2940 -0.33773733653770399 1.9692596857519455 2.2062035624522043 161 136 106 0.40000665382382478 12 6785 11 8574 17 7451
2941 -0.45896665543997273 1.9903870513160709 2.2722758273537962 162 132 104 0.38871574676969756 9 6128 12 4754 11 8577
2942 0.092636920697756767 1.9132760343353352 2.1262132742018931 147 104 72 0.92637429928468507 9 3469 11 8586 8 2753
2943 0.22282420558169758 1.900812592957609 2.2036146733330586 142 107 79 0.52577658709198427 9 3472 12 730 11 8614
2944 -0.50426310556897846 2.0615680492557864 2.31286356510835 107 74 43 0.59388053618733083 9 6188 12 6860 11 8624
2946 0.24806657752882688 2.0597445750180063 2.2221864283359123 170 132 96 0.58369274299186347 9 3599 11 8747 7 2482
2947 0.43654798010814339 2.1282045659753077 2.2626965953648783 121 76 45 0.90862378454731108 9 6262 11 8833 7 2641 8 5510
2948 -0.27483768225021027 2.3647226114016506 2.3091414283790281 177 147 118 0.28098587013170723 9 6441 12 5328 11 8893
2949 -0.17928185620533213 2.4085181674262 2.3211757334183316 167 136 107 0.38141891812851175 12 5371 11 8930 14 7013
2950 -0.2482006783860283 2.4314378975453397 2.3259657706343257 115 76 45 0.58703065912464747 9 6493 12 5398 11 8934
2951 0.348230658735243 2.3472007646872264 1.8771697330212072 171 140 110 1.4020022283873934 9 477 11 8951
2952 -0.023573511051521851 2.4694774177257792 2.3821103252848954 150 121 89 0.41333042807782738 9 4219 11 8974 8 5632
2953 -0.12099688480434431 2.5783129644274871 2.3995550987907035 180 151 119 0.2177630059813688 9 4319 11 9008 8 5673
2954 -0.057906791231557057 2.6105810728252887 2.4512041388570944 181 152 120 0.3340291219013356 9 913 12 2592 11 9022
2955 -0.08019325515939707 2.6586174893849557 2.4548047908811697 190 161 129 0.78945249103563031 12 5559 11 9042 8 7059
2956 -0.14178914142396043 2.682456967029808 2.4307428703576126 176 146 116 0.22051943580509772 9 4407 12 5565 11 9046
2957 -0.18728482164310906 2.7053185672907829 2.4206667274834563 126 90 62 0.63843043488724416 9 6640 11 9050 7 1511 8 3430
2958 -0.10082356830472441 2.7273631128752247 2.4571497539258456 168 137 108 0.8637886148959848 9 4460 11 9071 8 5796
2959 0.089739942912267154 2.7738079903432453 2.4917088546460708 185 152 117 0.3974759558954335 12 5631 11 9109 8 5880
2960 -0.024453919211989021 2.8202794445986359 2.4662878308536489 189 164 130 0.96360867953929696 12 5684 11 9119 7 2789
2961 -0.21876892488956218 2.8767893201569952 2.4600430626748939 135 102 70 0.31889987705094908 9 6767 12 3070 11 9125
2962 -0.093398811171630333 2.8653909777248381 2.4554298813095103 124 87 54 0.42905325730999017 9 4639 11 9141 14 7485 15 5257
2963 0.18347491890524509 2.8358965834427479 2.5021331151357509 131 85 51 0.3473234147488673 9 1283 11 9172 7 2840 8 5992
2964 0.01493637870768884 2.9281135015943027 2.4649594922492191 139 107 77 0.58502743559814496 15 5319 11 9198 14 7553
2965 0.01493637870768884 2.9281135015943027 2.4649594922492191 139 107 77 0.58502743559814496 15 5318 11 9199 14 7552
2967 0.12236002523232542 2.972048573591342 2.4774177064283114 184 157 127 0.64278601557879245 12 5838 11 9229 8 7197 7 2860
2968 1.0898533643312813 2.9124728160270319 4.6903204392684135 160 162 161 0.52376680939424458 9 6708 11 9236 26 9067
2969 1.1530009512327657 2.9242451883718323 4.6752505187824509 137 139 138 0.87137103611618905 9 4569 11 9243 10 1741 7 4485 26 9070 29 2950 28 2276 23 4624 24 9688 2 2798
2970 1.1527661620474139 2.9230229864864792 4.6741528409746396 137 139 138 1.1259607012711144 9 4570 11 9244 7 4486 26 9071 29 2951 28 2277 23 4625 24 9687 27 9390 2 2799
2971 1.4130382461239193 2.9529442526330238 4.6263720743904981 141 143 140 0.92164999414658322 15 4802 29 3241 10 1744 28 2285 23 4623
2972 -2.0434856205028389 3.8764981434901458 3.6579654562602171 135 135 125 0.55615975664625761 15 7672 11 9282 17 9325 18 4359
2973 0.87909853673435767 3.1423715871771845 3.5521141181137597 126 87 58 0.98934899064284421 9 4891 11 9327 10 1264
2974 -1.4729515865821639 3.8146341199924487 3.1786053981334312 126 90 64 0.48937118318960698 9 7099 12 7354 11 9353
2975 -1.5203831941097556 4.1223676887935943 3.3438411559867673 148 147 145 0.74039435402812193 9 7148 11 9404 14 9566 15 7742
2976 -1.2540475974057235 4.1249562904380044 3.3308405882530465 115 117 116 0.19613829386581638 12 7379 11 9432 17 8429
2977 -1.3651890489652689 4.2371466112688534 3.2007987161950679 120 120 118 1.0331801666456144 12 8188 11 9451 17 9285 10 1797
2978 -1.3651890489652689 4.2371466112688534 3.2007987161950679 120 120 118 1.0331801666456144 12 8187 11 9452 17 9286 10 1796
2979 1.2471401903558219 3.5972225204194594 3.8632529563719773 142 142 140 0.59316877418954972 9 7004 11 9458 8 8156 6 5379 26 8565 27 10713
2980 1.5025205289570902 3.5503132022599502 3.9092044013529863 123 123 121 0.87354886609744842 9 6994 11 9466 7 4540 10 1803 26 9079 6 5390 29 2954 28 2264 27 10742 23 4597 22 7265 4 2354
2981 1.5799850996049554 3.535050229325035 3.9253073461079229 140 140 140 0.96140784291367787 9 5167 11 9468 7 3867 8 6461 26 8580 10 1278 6 4607 27 10761
2982 1.5797410353892312 3.5347372750680468 3.9244046959065395 140 140 140 0.69359151383058582 9 5168 11 9469 7 3868 10 1277 26 8579 8 6460 27 10760
2983 1.5139658785307677 3.5557720884302748 3.9063114082916846 180 180 178 0.96855612689677706 9 5179 11 9471 8 7482 26 8574
2984 -1.1122113237806175 4.2185413448657769 3.2159510978338415 160 160 158 0.35848373020674096 16 5873 11 9473 17 9253
2985 -1.0880512433485341 4.2137237548766544 3.2164941420677291 126 128 125 0.56465761253935687 15 7738 11 9474 17 8414
2986 1.1678044232615592 3.6465401617813749 3.8069312695436945 127 127 127 0.19684066411297879 9 5225 11 9476 7 3848 8 7465
2987 1.1676370167255785 3.6461779270629053 3.8057028161545201 127 127 127 0.32331736683239215 9 5226 11 9477 7 3849 8 7466 26 8563 24 8462
2988 -1.2182672193001829 4.252386869568741 3.1732312042035011 164 164 164 1.1542537602377787 12 7395 11 9479 17 8458 15 7774
2989 0.91626232325935864 3.7287582499122816 3.7173473864968938 149 149 147 0.89247407872052176 9 5303 11 9490 8 6434 6 4582
2990 -0.6246666821952257 4.1159387569479415 3.3120327147506741 138 140 139 0.55565737858497555 15 7650 11 9491 17 9190
2991 -0.96319077943785791 4.2419594982140554 3.1747593588364436 143 145 144 0.58621638047722646 9 7191 11 9502 17 8394 15 6094
