# 3D point list with one line of data per point:
#   POINT3D_ID, X, Y, Z, R, G, B, ERROR, TRACK[] as (IMAGE_ID, POINT2D_IDX)
# Number of points: 382, mean track length: 4.0286512928022358
2383 -0.40283170369062138 3.222298152462765 2.6927290805273136 141 112 82 0.30907233005671547 10 5063 17 3471 13 5991
2384 -0.27422504580501822 3.2417679074894781 2.6488403409509962 146 119 87 0.54603510306978909 10 5090 13 5997 12 7058
2385 0.044852463391131962 3.2341566430248352 2.5877002324929999 140 108 80 0.29709330021303898 10 5094 13 5999 12 7146
2386 -0.019683202283284455 3.2451048424055724 2.5922922763171155 181 155 128 0.99227782628327221 10 5101 13 6004 12 9297
2387 0.28293598337257397 3.4589577323753975 2.9133883845563506 142 116 89 0.087234512332814762 10 5204 13 6034 12 9385
2388 -0.11722649806777261 3.5699232801163028 3.5125235750337467 136 172 188 0.55794984090748045 10 7009 13 6038 15 9401
2389 -0.72922450127281346 3.5631936025510544 3.2613152426192369 135 98 71 0.82274675513146656 10 5240 13 6045 12 7175
2390 -0.92919051794133323 4.1075517255714002 3.3778585070109264 135 136 132 1.1222725377713456 16 5958 17 4913 13 6074 15 5776 18 6661
2391 -1.6044184009916029 4.1423651562742174 3.3630887370768292 164 168 169 0.85835713846765394 17 4932 13 6076 12 9401 15 10106
2392 -1.8870584207015444 4.2243634165236639 3.2731001468292713 134 136 135 0.68314747758468852 16 7810 13 6080 18 8584 19 4061 22 6194 11 781
2393 -1.9248034462906449 4.3072998495051156 3.1778126661390349 170 172 169 0.84514462054937523 16 7850 13 6088 18 8627
2394 1.0005347549473931 4.5096901027880465 2.8164331695708378 188 190 187 0.55393207983966908 10 7260 13 6114 9 7555
2395 0.59415778738888403 4.5316276356485492 2.809187198869401 161 161 161 0.8208448505356104 16 6038 13 6116 12 9630 8 2976 9 6483
2396 0.60083009955026845 4.5407759833112804 2.8004842880321301 158 158 158 1.2856311849773037 16 6043 13 6119 9 7497 8 2978
2397 -1.5830855228779626 4.6003019589005021 2.8093103606735981 155 157 156 1.2859132094377186 17 5044 13 6122 19 4044
2398 -0.66946531368617468 4.5859488490000331 2.7957196831328135 142 142 142 0.65450520887098618 10 5699 13 6126 12 4248 17 2209 15 5889 18 6773 11 314 9 6374 19 3405
2399 -0.58887748854892741 4.6453616815556069 2.7228815363817604 162 164 163 0.45640095754036081 10 5731 13 6134 12 7716 18 6769 9 6404
2400 -1.2960436083680507 4.7299293492577874 2.6502938302134345 152 154 153 1.6902753060415832 17 2263 13 6150 18 4195
2401 0.60972973991115553 4.6962889135452013 2.6107828149767571 167 169 167 0.48667713739835505 10 5756 13 6152 8 666 9 6519
2402 -0.21426556741870154 4.7298577480229795 2.6059862037326154 120 121 123 0.80624402319099342 16 6272 13 6156 12 9625
2403 -1.7087870724792089 4.7786233363436939 2.5994343392171189 157 159 156 1.3769547274967509 17 5095 13 6157 18 8667 19 4082
2404 -0.48055048353006918 4.7612187147524407 2.5790930724541554 158 160 158 0.88703835693242827 17 3855 13 6158 12 7789 16 7884
2405 -0.036112465399708311 4.7594373763300428 2.564372956888652 159 163 162 0.56151200869741125 10 3297 13 6159 12 4433
2406 -1.5517612922246753 4.7913394720327487 2.5773655078237474 153 155 152 1.2193156575997011 16 7974 17 2299 13 6161
2407 0.88944397005906517 4.7391143675702052 2.5435414931503004 186 188 187 0.5835695283550455 10 7359 13 6163 12 9760 8 3020 11 349 9 7585 14 528
2408 -0.98381971093444243 4.8010313578650781 2.5573805011635753 149 151 150 0.7075905662469556 10 7388 13 6166 12 7752
2409 -0.55296945497273065 4.7927933917164225 2.5573978654293832 154 155 152 0.74252942440862846 17 2264 13 6167 12 4372
2410 0.80419848730128363 4.7897859572703432 2.4909642265432228 168 168 166 0.37388964335869018 10 5799 13 6181 9 6571
2411 -0.60217034363807787 4.8547969730200515 2.4726037012093571 144 144 142 0.80858720507770376 16 6357 13 6185 12 7820
2412 -1.0871051553386306 4.8720781943496174 2.4719368654045075 165 167 166 0.89184820414805177 16 6441 17 3901 13 6188 12 7770
2413 0.44653383928251861 4.8758698274954693 2.388073404043904 188 189 190 1.1592087662102459 10 5826 13 6205 12 8084
2414 0.59032726373668953 4.9078243896478675 2.3549412923717199 142 144 143 0.70739098988562732 10 7447 13 6218 12 8109 8 3012 9 7572
2415 -0.73692765512234693 4.9620174170343754 2.3480975298806652 150 152 149 0.68255832220553769 10 7458 13 6231 12 9659 18 4123
2416 0.6998716928214328 4.9320958335114407 2.3244608287813415 169 171 170 1.4887931389843101 10 7452 13 6233 12 10838 9 8255
2417 -0.75068628797964587 4.9880735455023153 2.3205431728848183 146 148 145 1.0939937388398338 10 3345 13 6235 12 7882
2418 0.65494245192435074 4.9929498507924439 2.2440705948613129 148 149 146 1.2908203433846177 17 2311 13 6247 12 8176
2419 -1.0210545770542734 5.0488635512134383 2.2746476865932359 152 154 153 0.49728526789403577 10 7490 17 3972 13 6249
2420 0.23080086088627197 5.0440704082366574 2.2111748863328957 192 195 194 1.2602279530575433 16 6362 17 3935 13 6269 12 9814
2421 0.23957139401410249 5.0446486505031158 2.1872739979256441 167 169 168 0.85652907432653458 17 2349 13 6274
2422 0.57293808985280215 5.0473254694291372 2.1841906511508564 160 160 160 0.7682591196900308 10 5866 17 3925 13 6276 8 1926 12 8208
2423 -0.47304949587404266 5.0962793260630317 2.1761624212919628 195 197 196 0.82832066014751948 16 6486 13 6280 12 8066
2424 0.52568764443379246 5.0943204388121446 2.1244575317336363 183 185 184 0.95760658572048996 10 5871 13 6300 12 8235 8 1933
2425 -1.0387981598334288 5.1804207464610563 2.1076085748150661 186 188 185 0.61078234035615975 17 4025 13 6315 11 852
2426 0.059372473493555754 1.6406842136745199 2.02823334127079 47 85 163 0.23307124497940254 10 5951 13 6646
2427 0.02830220232758944 1.8279829918714565 2.0611957293356751 122 72 34 0.84783847628753339 10 7641 13 6696 12 10184
2428 -0.36910145729633032 1.7991050347709696 2.1971844319678566 94 63 39 0.47923395967886107 17 5438 13 6697 14 1536
2429 0.021920436396623593 1.8395147616368084 2.0515474862359349 183 140 104 1.0647466427766725 17 2540 13 6699 14 1313
2430 0.051046016555606699 1.8854982366522717 2.1039953974032022 170 132 98 0.93132334620478152 10 7670 13 6719 12 11182 14 1546
2431 0.036610984658079847 1.922050869941448 2.1256351896462249 182 143 110 0.45474381330612412 10 6041 13 6735 12 10214
2432 -0.36374913467913733 1.9234434052189977 2.216787419672706 171 142 110 1.2538200928287468 10 6048 17 4231 13 6742 15 9748
2433 0.24128735862704664 1.9517501866258762 2.2217846881453918 186 153 120 0.69593012112503472 10 6077 13 6756 12 10247 15 6415
2435 -0.30726763625608461 1.9719578980352459 2.1950190821878452 177 151 120 1.0967149814173505 10 6084 17 4259 13 6777 12 8567
2436 0.38218718438412091 1.9780978450308475 2.2529881140600208 149 102 66 0.57649287434787766 10 7731 17 4239 13 6782 12 10273
2437 0.38233994355575163 1.9777862685130521 2.2518372015037298 149 102 66 0.2379040779091722 17 4240 13 6783 12 10272
2438 -0.34469588888255553 1.9799116208751621 2.2218735927065159 162 133 103 0.85104512032736235 17 4267 13 6786 18 7450 19 2773
2439 -0.063790363291308605 1.9932622587562925 2.1586329077111213 171 141 107 0.53273061652536613 10 6105 17 4264 13 6787
2440 -0.18553131009074653 1.9932548082883688 2.1757124476896679 171 142 112 0.52465382840464547 10 7729 13 6788 12 10226
2441 -0.19381324675611117 2.004747609319947 2.1755519762029887 122 81 53 1.0180601522044475 10 7734 13 6792 14 1342
2442 -0.1872141449242728 2.0130235190063237 2.2284970969020699 122 85 52 0.035991054642747086 10 7740 13 6807
2443 0.51086307927919883 2.0095265817521319 2.321499540138654 154 106 68 0.77977067270491507 10 6149 13 6810
2444 -0.20114449279595131 2.0268352415795197 2.193623188227384 180 149 111 0.65455196163079477 10 7743 13 6812 12 8627
2445 0.4452309007830626 2.0389334389172298 2.2749756134174706 175 132 98 0.85231888137828093 10 7755 13 6823 14 1337 17 2684
2446 -0.040394132321764309 2.0734701459190035 2.215124916418842 128 87 55 0.4268341783347509 10 7764 13 6851 12 10269
2447 0.46440054405641701 2.0841885260019404 2.2804725164532136 161 116 82 0.4450253084223334 10 6201 13 6858 12 10307
2448 0.3179670517190612 2.0890363388373157 2.2555226624680351 150 107 75 0.54492132247201364 10 6200 13 6861 12 10298
2449 0.57178079002404714 2.0784924760370123 2.3493590888195808 183 145 109 1.1255930346641991 10 6202 13 6862 12 11225
2450 -0.46427143476988791 2.0850831974140678 2.2910588898967466 122 81 49 0.84492338540284995 10 7774 17 4340 13 6864 12 5339
2451 0.17639407823547038 2.1142673086694121 2.2592945976632794 120 76 46 0.61723351992001074 10 6226 13 6881 12 8775
2452 0.4052624348012463 2.1230909081524443 2.2766584545838522 133 85 49 0.42202654628597713 10 6249 13 6892 12 8809
2453 -0.27861178711864848 2.1275140997914046 2.2379385687438003 131 87 58 0.30213817721850894 10 6242 13 6896 12 8696
2454 0.097352101876492889 2.1431905809964267 2.2611366211261203 171 132 96 0.77599936700412908 10 3706 13 6910 12 8780
2455 0.40886367809793495 2.1845380158139256 2.3003944091298387 156 117 86 0.70582992401451083 10 6306 17 2857 13 6937
2456 -0.37519759648785728 2.1876993889128773 2.2785153578741451 122 85 58 0.57560232668906075 10 6303 13 6940 12 8733 15 9791
2457 0.2968857144426495 2.1963875042590426 2.3137045425304019 163 128 96 0.61042335145818827 10 7838 13 6946 12 10331
2458 -0.044564197087784925 2.21324105976093 2.2731808109731646 175 143 109 0.16963754060442918 10 6325 13 6951 15 8893
2459 0.0062970361515342008 2.2229025011767134 2.2946974990759874 135 91 62 0.3738766149553967 10 6334 13 6957 12 10320
2460 -0.014931238369983047 2.2330051699492812 2.2893575945819169 130 87 55 0.39078087218764512 10 6346 13 6960 12 8824
2461 -0.31695050537673086 2.2823131745953824 2.2948443449003348 109 68 36 0.33653630190290285 10 6380 13 6975 12 8807
2462 -0.41574311508487771 2.3075209357939159 2.3283551269973439 156 120 88 0.32164222653842711 16 7083 13 6984 18 5201
2463 -0.53226566574465339 2.3179590093155893 2.4085490310404358 141 108 77 0.72062032127244324 10 6399 13 6997 15 9822
2464 -0.044306833029576484 2.3451052746612646 2.3388617550073136 184 157 128 0.48759840816128369 10 6413 13 7003 12 10357
2465 -0.17718317279323972 2.3566904423596808 2.3184256432041672 181 151 117 0.30031620368734741 10 6421 13 7008 12 10349
2466 0.72504793322514172 2.3690637060730357 2.7501967406524255 168 133 103 1.809134810868757 10 6459 17 2975 13 7030
2467 0.73762079672145808 2.368715188465826 2.7567292848791478 136 95 65 0.69893930188047693 10 6457 17 2977 13 7032
2468 -0.1707990562449036 2.4051342851344546 2.3325215919005178 189 159 130 0.22380406838175956 10 6465 13 7035 12 8929
2469 -0.33769286413150218 2.4227964867712579 2.3424118268424206 160 125 95 0.15877311710762201 10 7907 13 7043 12 8918
2470 -0.21739597823163512 2.4394781013368432 2.3421383336615116 168 141 111 0.70065856309815255 10 7910 13 7050 15 8984 16 7121
2471 -0.50531362821133508 2.5249444226487183 2.4344431948693428 116 79 52 0.26971680636794931 10 6545 13 7076 12 8946
2472 -0.74007299208375976 2.5164983515924475 2.6379921724702142 171 146 115 0.92889389970631175 10 7931 13 7077 12 6091
2473 -0.7289707546367773 2.6246139413207383 2.6324352693636772 162 133 103 0.63171409734954342 10 7950 13 7093 12 8966
2474 -0.22751493448506843 2.6485906174904756 2.4004572887711992 161 125 91 0.25350064771690745 10 6590 17 3169 13 7097
2475 -0.13380507735660485 2.6998531894926612 2.4497352021909142 185 160 130 0.31029863839786953 10 6622 13 7105 12 10426
2476 -0.13380507735660485 2.6998531894926612 2.4497352021909142 185 160 130 0.31029863839786953 10 6623 13 7106 12 10425
2477 -0.065786390079002943 2.7033798764185373 2.4859642351712421 196 167 136 0.33615835129746041 10 6626 13 7107 12 10433
2478 0.20214980781954792 2.7518081931286194 2.5852345728162045 144 104 68 0.084298454211934326 10 6650 13 7121
2479 0.20185261784089245 2.7624272858551504 2.5836122029713282 173 133 97 0.16356378760876814 10 6654 13 7122 12 10459
2480 0.23069699252243306 2.7795634647082061 2.5829902619625145 145 102 66 0.23112283106435633 10 7983 13 7126
2481 -0.43700300389452967 2.7894101823063453 2.4683981148250163 153 122 92 0.16297217514071863 10 7990 13 7134 12 10429
2482 -0.38120226124496703 2.8048466631845224 2.4606731514176299 164 133 104 0.49443584540800883 10 6702 13 7141 12 10439
2483 -0.086920996698894373 2.8285172571330399 2.4784874960062511 186 159 129 0.45834376846145641 10 6723 13 7154 12 9107 15 7410
2484 -0.15271367819382489 2.8392755476233935 2.4663709868595709 140 105 75 0.5320994771435017 16 5224 13 7160 15 9134
2485 -0.027883663877329226 2.8698325767629491 2.4810666804239485 179 148 112 0.69969609717305037 17 3300 13 7173 12 10475 10 6749
2486 -0.49649953731142943 2.8920216173856375 2.5316079802258322 120 84 52 0.25356350374062214 10 6762 13 7178 12 9084
2487 -0.26801911299474679 2.8905682144235016 2.4712716551611429 178 147 116 0.29170933891487316 10 6766 17 4663 13 7179
2488 -0.26784443847708522 2.8906918849222589 2.4682739916846645 178 147 116 0.50455845094359286 10 6765 13 7180 12 9116
2489 0.13060861079172295 2.9053946121965422 2.5004234990383956 175 140 107 0.44582660265409252 10 6776 13 7183 12 10497
2490 -0.079274781567254343 2.9217479921785579 2.4805974951386816 141 101 66 0.32623728715226097 10 6791 13 7197 12 10483
2491 -0.079170713201207596 2.9218339559912332 2.479651833506276 141 101 66 0.36188866984886769 10 6790 13 7198 12 10484 15 9173
2492 -0.45850356524396907 2.9332922596217177 2.5332815453773225 166 138 107 0.32769373855401951 10 6801 13 7204 12 9112
2493 -0.30250486556883355 2.9694477461039699 2.5016766749606618 185 158 129 0.61245543298598315 10 6818 16 5443 13 7214 12 9161
2494 0.1281543857823074 2.9815526069108009 2.4991474608499864 152 121 92 1.1200221761765992 17 3350 13 7216 12 10506
2495 -0.50526430525644817 2.9923905090918734 2.5847635698659883 170 142 113 0.061974055742674151 10 6834 13 7220 12 6697
2496 -0.33821942693771168 2.9895424956041579 2.5161595079186592 169 140 108 0.59359488522585224 10 8035 13 7221 12 10480
2497 -0.2942712601296823 3.0257727740663261 2.519369713666042 172 146 113 0.91394621418531041 10 8038 13 7229 15 9231
2498 0.085422286974712131 3.0241027372297062 2.4974910828816537 184 157 128 0.43810598280954144 10 6857 13 7230 12 9241 9 3905
2499 0.13716285236168529 3.0393259598643207 2.5150443557701885 142 108 79 0.49351145077659597 10 4885 13 7239 12 9250 9 6073 8 1809
2500 -0.16561934419793128 3.0578132297859919 2.507282745691604 161 132 102 0.34654934005809962 16 7423 13 7244 15 9936
2501 -0.013992356180142563 3.1369975031239838 2.5218680684958432 147 112 83 1.7807438404069 10 6906 16 7443 13 7268
2502 -0.054470102665819947 3.1515487462933796 2.5315034025319978 161 128 97 0.72144227057306853 10 6915 17 4746 13 7278
2503 -0.26436560438077666 3.1863144362868989 2.589374815222194 175 148 119 0.38478830280442261 10 6930 17 4756 13 7286
2504 0.07004138467921571 3.1818570927858043 2.554440608485232 177 144 111 0.47288059008043509 10 6934 13 7287 12 9288
2505 0.08895634772251601 3.2128007049311385 2.580542922453505 135 101 66 0.56054001332665093 10 6942 13 7291 15 7868
2506 0.081253121826715208 3.22992512326134 2.5943734386669357 156 127 93 0.35609697175536614 10 5087 13 7296 12 9303
2507 0.081253121826715208 3.22992512326134 2.5943734386669357 156 127 93 0.35609697175536614 10 5088 13 7297 12 9304
2508 -0.13313052963220048 3.619491492460357 3.523951445468485 167 188 199 0.6318418434058477 17 4800 13 7335 15 10027
2509 -1.473623548612826 3.817151062004601 3.2077415863859211 126 95 68 1.0013893283186996 10 8168 13 7352 12 10575
2510 -1.2625774674166415 4.1064448135685856 3.3909055801085852 126 132 130 0.8035074467922001 10 7135 13 7374 12 9418 15 9548 16 7692
2511 -0.85926042918319023 4.2158676463722546 3.2452666179167871 160 161 163 0.69766481938624469 17 4937 13 7390 12 9497 15 9554 18 8362 9 7314
2512 -0.93291957232022404 4.4355395908373909 2.9846192717675089 156 156 158 0.74915081341411915 10 5646 16 7812 13 7413 12 7620 15 8505 18 8436 11 1850 8 3794 9 7331 19 3427 7 4299
2513 0.57995401382709422 4.4670694913065221 2.8866392943979005 172 172 172 1.1154664884848218 16 5995 17 4978 13 7429 11 815 8 2975 28 5909
2514 -0.7324109464256503 4.5944219676850331 2.7864480992073704 173 174 176 0.28935648839969547 17 5026 13 7453 19 3979
2515 -0.40358804996345554 4.5928712323593333 2.774870446480711 154 156 154 0.43529067226670759 16 6215 13 7454 12 9563 15 8517
2516 0.692311862680137 4.6071226559893868 2.7182744745013361 183 185 182 0.80277860478025587 10 7299 13 7458 12 9660 8 3897 9 7517
2517 0.86820308759349663 4.6514601606006982 2.6492747260219049 156 156 156 0.50975347354146638 17 5016 13 7476 9 7563 7 5393
2518 0.74140381632351571 4.6705482935751874 2.6361502278382916 151 153 150 0.6750314391102944 10 7329 13 7479 8 3922 9 8218
2519 0.56751032531634227 4.6764515165791805 2.6357728655327408 139 143 142 0.61022548331636195 10 7335 13 7481 8 3894 9 7507
2520 0.56745568756928066 4.6764851276715511 2.6359094119128121 139 143 142 0.53683545411314915 10 7336 13 7482 11 1354 8 3895 9 7508
2521 -1.2118982078915463 4.728372897721993 2.6467417915450038 168 170 169 0.17174623195691474 10 8302 13 7485 12 10676 18 8569
2522 0.83395275549426851 4.7477926775131554 2.5373840553897664 158 158 158 0.91841542387483677 10 5783 13 7498 12 8048 9 6565 8 1916
2523 0.7855615116360688 4.762884708803 2.5195748293009865 167 169 167 0.4377599726551884 17 5042 13 7510 8 3948
2524 -0.66033025988860194 4.8010643073572954 2.5395751518228824 126 130 129 1.1095342090958988 17 5979 13 7513 18 8492 19 3982
2525 0.86823557319760902 4.7703969639585839 2.5112628363976071 174 174 172 1.4972355798139927 10 7369 17 5041 13 7515 12 10801 9 8249
2526 0.047644755872512622 4.8078069425511805 2.497251499946644 183 183 185 0.64815853152229952 10 7398 13 7523 12 7897
2527 0.51820891022678339 4.8478913976117886 2.4304722761281305 129 130 132 0.74402875911750077 10 7422 13 7537 12 9770 11 1393 9 7547
2528 0.51820891022678339 4.8478913976117886 2.4304722761281305 129 130 132 0.74402875911750077 10 7423 13 7538 12 9769 11 1392 9 7546
2529 0.5001715788077552 4.8513436027657022 2.4179997376399323 182 184 183 1.4349009786197626 10 5820 13 7539 12 8068
2530 0.91586379432830345 4.8364642505180253 2.3940645883253753 161 162 161 1.1482369114949085 10 7426 13 7541
2531 -0.98377455219825505 4.9195804364491167 2.4056592847784053 161 161 159 1.0759637202555479 16 7976 13 7545 12 9627 18 8574
2532 -1.4440331445837629 4.9307425335810446 2.4088453100407623 134 136 131 0.7731644868385471 16 9016 13 7547 18 9387
2533 0.4219725027645822 4.8872607143039071 2.3857373911418454 188 191 190 0.77566956531424969 10 8364 13 7551 12 9779 8 2992 9 7535
2534 0.82078962457343085 4.8840161435733087 2.370891920588226 161 161 161 1.1635588957405925 10 7439 13 7555 12 9809 8 3966 9 6588
2535 0.86580214098696784 4.882958777386964 2.3721238267736648 154 154 154 0.78963276077417421 10 7438 13 7557 8 3972 9 7626
2536 -0.81609215641618826 4.9567255237344714 2.3559719660156349 158 160 159 1.2313045892925378 16 6452 13 7561 18 6964
2537 -0.9680009405243164 4.9675481641975017 2.3477276101146436 145 145 144 1.313639678544247 17 5129 13 7562 18 8581
2538 0.45435450809067524 4.9721787494099017 2.2839059320710104 155 157 155 0.69110587842495708 10 5842 13 7581 12 8124 8 1913 9 7561
2539 -0.017350166275999661 4.9905836341035972 2.288797111500692 159 161 160 0.44143175120904149 17 3920 13 7586 12 8072
2540 -0.79122539712936413 5.0148367636063957 2.2887830796597148 146 146 146 0.88150426130006576 16 6478 13 7590 12 7892
2541 -0.98905681274213864 5.0333354173298535 2.2697426005762349 157 157 157 1.0655992725365706 16 8022 13 7596 12 9663 18 8612
2542 -0.40428271470540372 5.0491508482660157 2.2451457165334423 163 164 166 0.50807664409756914 17 3952 13 7607 12 9739
2543 0.64555397296765171 5.0210393166552683 2.2087311334258772 189 193 194 0.90471446527193211 10 7482 13 7609 12 10886 8 3967
2544 0.81773218280612137 5.0277592517930358 2.1990197371026503 162 165 164 1.3085284182644934 10 7484 13 7611 8 1950 9 8283
2545 -0.89303064565609647 5.1495511341724143 2.1462011163634576 138 141 140 1.086436615815126 17 5190 13 7634 11 853 14 1815 10 9043
2546 0.23672073462960305 5.1257330819337117 2.1149630650298752 143 145 144 0.88091686940851499 16 7938 13 7639 12 9851 10 5877 11 1427 14 1410
2547 -0.75682158043875625 5.1696202008080565 2.0992884779519918 184 186 185 1.0950175380295342 10 7518 13 7645 11 343
2548 -0.22544625468355173 5.1752945259201626 2.0849104339550255 191 193 192 0.64781634897365037 17 4003 13 7653 14 1081
2549 -0.0071494333631426342 5.1899418492612046 2.0457483833964178 157 159 159 0.29792048541372312 16 6481 13 7658 12 9852
2550 0.00066249352042806187 1.843834724297956 2.0449195680324443 153 110 75 0.96409054166342756 10 7646 17 4191 13 7836 14 1543
2551 0.1034922732568752 1.840272689868079 2.1017199096617687 177 140 104 0.37896136733947489 10 8632 13 7839 12 11174
2552 -0.037460315029753381 1.8973759524883871 2.0885094059754237 124 80 52 0.69247655201635938 10 7677 17 4209 13 7847
2553 0.092881249959383155 1.8973992998961962 2.1396698281594873 127 76 38 0.59428070629180774 10 8651 13 7849 12 11188
2554 0.077899464152351328 1.9230849453773795 2.1394091029916327 118 67 36 0.34444116337800423 10 7692 13 7858 12 10221
2555 0.27911113688910683 1.97595554144182 2.2318710338507293 141 100 72 0.69367702984930679 10 6102 13 7876 12 10259
2556 0.30361631260928762 1.9914485634400134 2.2442374930649858 130 81 47 0.46383226392031746 10 6117 13 7880 12 8693
2557 -0.50791763561503145 2.0336633948830616 2.3234699232194411 174 145 111 0.77723624643303435 17 5537 13 7895 15 9768 16 6951
2558 -0.07733621145187855 2.1062350570153554 2.2102736414306294 136 91 58 0.67166906679735128 10 7784 17 4343 13 7906
2559 -0.011235107174883664 2.122048390211055 2.2185100563869207 133 85 49 0.50510434241187896 10 8699 13 7909 12 11804
2560 -0.45827595155223944 2.1127864559470484 2.2912258526963649 129 93 62 0.60457361536633469 17 6418 13 7910 12 10252
2561 0.17836680281798251 2.1465580194667679 2.277743051552958 145 108 78 0.27893848892803624 10 7804 13 7914 12 11220
2562 0.49286938313044215 2.1725595855839201 2.3213030621286026 145 93 56 0.58828524468530274 10 7823 13 7918 12 11240
2563 0.49286938313044215 2.1725595855839201 2.3213030621286026 145 93 56 0.58828524468530274 10 7822 13 7919 12 11241
2564 0.16751525642447238 2.1786291065939234 2.3267089623265433 147 114 81 0.49742685664390401 10 7825 13 7922 12 10319
2565 -0.27701604546555847 2.3270956656021773 2.3090038861328295 130 94 65 0.63761489046284414 10 7881 13 7958 12 11235
2566 -0.52317065310638511 2.3280645853681561 2.3999462813697559 161 132 102 1.1411637371767673 10 8746 17 5601 13 7959
2567 -0.0009038513953546763 2.3422679427233013 2.3437290402559072 192 163 129 0.99108579265533192 10 7887 13 7962 12 11246 9 7878 8 4371
2568 -0.53373414407161557 2.4536474434190878 2.443302387753219 149 116 85 0.66107680282516501 10 8766 17 5638 13 7983
2569 -0.10950634550363324 2.6291736571616817 2.445379783776108 171 137 102 0.75578252547086366 10 7953 17 4556 13 7991
2570 0.052237797183027811 2.6780878829135566 2.5786029015120686 191 166 136 0.45603825921644248 10 7964 13 7997 12 10435
2571 -0.18044976669153792 2.7078339809636542 2.4375868861274199 181 152 118 0.78335466151134003 17 5673 13 7999 12 11283
2572 0.24035017414491519 2.7301182059536133 2.6610279844508868 185 156 126 0.30180539939517409 10 7969 13 8000 12 11297
2573 0.077958529011449257 2.7671363126613371 2.5058955377370209 185 155 127 0.82319608376572306 10 8797 13 8008 15 9874
2574 -0.28747136545316648 2.8096329677405008 2.4499489186200067 129 86 54 1.3061511180100689 16 7324 13 8013 12 11292
2575 -0.011604322270198515 2.8135194126951908 2.4901355309667585 194 169 139 0.54322288394829621 10 8802 13 8014 12 11303
2576 0.011550871390072322 2.8284011726709077 2.4877238212627089 187 162 131 1.0018374496570164 10 8803 16 8615 13 8017 12 11305 15 9882 18 5504
2577 0.021006720912196943 2.8369473889882659 2.4831183575912403 149 111 75 1.3684214596370534 10 7992 17 5699 13 8019 15 9122 9 7955 8 4429
2578 -0.130108248239343 2.8576002066334167 2.4682762559599367 184 159 128 1.9530898513910424 10 8809 13 8022 15 9888
2579 0.067467067915532225 2.8921887157125319 2.4875036483367738 174 142 111 0.40145599209229693 10 8009 13 8030 12 10486
2580 -0.63690902394897542 2.9617812850597627 2.6489691070888628 172 145 116 0.42146847484042543 10 8030 17 5728 13 8038
2581 -0.73279329307501417 3.0614232110064381 2.814699077637421 151 120 89 0.68014258380598491 10 6865 17 4724 13 8043
2582 0.75087889767121352 3.2040339965516473 3.4918120461239028 182 149 115 1.6104466472284689 17 5720 13 8058 11 1823
2583 -0.078061693819387198 3.1813070212802907 2.5524288851465062 162 133 103 0.88744918298146114 10 8067 13 8068 12 10534
2584 -0.15356515647090244 3.5395864078791877 3.5261316197977184 84 148 173 0.81435089701600927 10 8106 13 8103 15 10008
2585 -1.0132881069296824 3.5468095999024922 3.3856210857691802 119 84 54 0.72196432949308131 10 8114 13 8108 12 10540 11 1789
2586 -1.0132881069296824 3.5468095999024922 3.3856210857691802 119 84 54 0.72196432949308131 10 8115 13 8109 12 10541 11 1790
2587 -1.0406709908070972 3.5620940069482585 3.3727901945646992 129 91 62 0.19676292441308743 10 8118 13 8110 12 10544
2588 -0.10657178961685586 3.6245292968866534 3.5136642914598428 172 184 185 0.43339481870826768 16 8705 13 8120 15 10416
2589 -1.3293878404407014 3.9314625541354946 3.1974573348408692 159 129 101 1.475577182060424 10 8880 13 8144 15 10441
2590 -1.6549417995005651 4.1740616830781532 3.3327424603629363 177 181 182 1.3540229757192477 16 8866 17 5869 13 8173 15 10480 11 1300
2591 -0.81171753093172183 4.2152351695357417 3.2374370658292428 158 162 161 0.6316046123540936 17 6574 13 8181 15 10458 9 8560 8 5023
2592 -0.31249466643081442 4.3091830253398227 3.1038704473531999 137 139 138 1.0248696458236284 10 8916 13 8206 15 10461
2593 -0.37319402509901917 4.4525684502183687 2.9302213119910441 140 142 139 1.2974568499725816 16 7775 17 4989 13 8216
2594 -0.39820174094715255 4.4786323668402357 2.9123501350500116 140 142 139 1.3209680309400864 10 7246 13 8218 18 8319 11 1853 8 4514 9 8126 19 3957
2595 0.17089650942097206 4.520509948847832 2.8404484350914063 162 164 163 0.57117980091061826 17 5899 13 8226 8 4535
2596 1.0004767777982135 4.5166847009898357 2.8089963124037651 148 152 151 0.98661558909655744 17 5888 13 8228 18 8137 8 5089 9 8634 14 1952 3 2106
2597 -1.5717179246763777 4.6616040626435851 2.7373042829345744 189 191 190 0.7348639707158604 17 5952 13 8241 18 9367
2598 0.88612803262658679 4.6408868554710692 2.6622785338106616 157 159 158 0.92930465510838023 10 7315 13 8242 11 1894 17 5014 8 3939 9 8232 7 5397
2599 0.99739506565496772 4.6400909297822235 2.6583680486302765 160 162 161 0.59533102829401741 10 8949 13 8243 8 4605
2600 -0.21311412006768773 4.6812688799107187 2.6642031400989827 151 156 153 1.4699952808107222 10 8952 16 7852 13 8246 18 8337 8 4527 9 7462
2601 0.91762673126419336 4.6811641900133099 2.6122050661132317 186 188 187 1.5371411100727186 10 8955 13 8250 12 11490 9 8641
2602 0.34532731094860747 4.7532744336436474 2.5562211397542751 139 143 144 1.0294521160739745 10 7360 17 5939 13 8258 15 9589 11 1355 8 3884 9 7499 14 1768 19 3326
2603 0.3260815613716036 4.7580065530865028 2.5500444300587279 136 140 142 1.0853083213753234 17 5942 13 8261 15 9590 16 7830 11 1883 8 4556 19 3327
2604 0.3260815613716036 4.7580065530865028 2.5500444300587279 136 140 142 1.0853083213753234 17 5941 13 8262 15 9591 16 7829 11 1882 8 4555 19 3328
2605 -1.539969044619909 4.8185564414892852 2.5424513375536528 181 181 179 1.4943463899166136 17 6000 13 8266 18 9855
2606 -0.23277146998954271 4.7925393241013143 2.5306309356054904 146 150 149 0.83570760869068927 16 8917 13 8269 12 11456 8 3851
2607 0.90742752524974057 4.7634366699730757 2.5084788856092262 168 168 168 0.69124707365108951 10 8317 13 8270 12 10806
2608 0.87706535956448339 4.7699258606899386 2.5035534857215631 147 147 147 1.4416542890351838 10 8319 13 8273 12 10804
2609 0.60170027085617095 4.787618303214475 2.5033392896184536 151 155 156 0.72726074857676704 10 8330 17 6616 13 8279 12 9736 8 3926 14 1769
2611 -1.5687512839460536 4.8529633359666535 2.5047143192095334 132 133 127 1.5253332133759545 16 9692 17 6015 13 8285 18 9862 14 1612
2613 0.42296306101058401 4.89446430280098 2.3815577803313341 153 154 156 1.3296078747769462 16 7868 13 8310 8 3913 14 1400
2614 0.35578814751747995 4.9701954338987671 2.2894551381847679 156 159 157 0.58228155400021275 17 6011 13 8327 8 4581
2615 0.65235790877981215 4.9860145825211353 2.2525843693096381 187 189 188 0.97067003047100664 10 8393 13 8334 12 10864 8 3961
2616 -1.3446679859209116 5.1626072583246465 2.1421886897759044 127 127 125 0.55860895447173864 17 6090 13 8360 14 1644
2617 0.4332335568020666 5.1170698622237092 2.1072510048433508 164 164 164 0.58312947181110875 10 8429 13 8366 8 3960
2618 0.33653391317176728 5.1256764240905115 2.1004850015466028 183 183 183 0.62326297428134891 10 8434 17 6042 13 8367 11 1434 8 3954
2619 0.19752990280989738 5.1407632582149851 2.0884422478382505 174 176 175 1.3174926627793893 17 5165 13 8371 12 10887
2621 -0.0056745025147435478 5.1610767673557527 2.0810872298600387 149 150 150 1.1757664006673616 16 8998 13 8378 12 10866 14 1637
2622 -0.37758519639015681 5.2360705708432196 2.0058049112189638 119 120 122 0.56085725555075783 17 6092 13 8399 12 10856 11 1942
2623 -1.6507801678374039 0.35502452941658624 7.9174131490363271 198 200 199 1.407681049327852 17 6961 13 8476 14 2043
2625 0.16261469437549855 2.2966775369813024 2.4398173113278241 189 162 133 0.22790617325321119 10 8741 13 8509 12 12193
2626 -0.60333063341516613 2.3120671642646764 2.4741888582692773 137 101 69 0.7407425876765581 10 8744 17 6435 13 8511
2627 0.22268693557909572 2.3304956027018369 2.551878111728092 204 205 200 0.4113132886372366 10 8750 13 8512
2628 -0.51878052710102684 2.3437579695363393 2.3996944294358338 137 106 78 0.46711887723851842 10 8748 13 8513 12 11228
2629 -0.50026705705529717 2.3472897748384152 2.3896647272077645 159 129 100 0.38386754097715037 10 9270 17 6440 13 8515 12 11811
2630 -0.5848555324349658 2.3556653711766073 2.4609734323012313 153 123 89 0.30273495225465119 17 7071 13 8517 12 10321
2631 -0.38946523694019453 2.4987230962770104 2.3848656050824242 138 103 75 0.50309141910548616 17 6458 13 8530 12 11254 15 10305
2632 -0.098699215591730352 2.8391767046138154 2.481553956728801 128 92 63 1.0694594376862907 10 9308 13 8544 12 11302 15 10343
2633 -0.88299222278141909 2.9417354675699934 2.9347226208502923 140 110 82 0.82505184236193385 10 8814 17 7092 13 8554
2634 -0.13424615014552829 3.5426946989706769 3.5198445828322082 165 182 189 0.46350388755488919 10 8844 13 8579 15 10411
2635 -1.0695250111342134 3.5884262660527928 3.3591562581949796 124 87 58 0.66765699388160848 10 8126 13 8584 12 11331
2636 -1.0944671307369851 3.6135856594285807 3.3529570016545049 127 91 63 1.0153355746856885 10 9343 13 8587 12 11871 11 2720
2637 -0.17824367748866288 3.6391291998607023 3.544337430449664 187 209 222 0.37444855542461425 10 9342 13 8589 12 11882
2638 -0.12082360914299829 4.0113855113340433 3.4595203595553903 130 131 133 1.1400601727281237 17 6535 13 8615 11 2748 8 5034
2639 -1.2182648102637237 4.0992239456539776 3.4001753784457667 124 128 129 0.65215381171493303 10 9371 17 6561 13 8626 12 11896 15 10665
2640 -1.9500230203405107 4.1131677377996043 3.4091040517114388 154 155 150 0.7338898830908791 16 10148 13 8628 18 10177 19 4829 22 7739 23 9131
2641 -1.9333610742336136 4.1644475860705015 3.3434880687046111 192 194 193 1.3573928545520797 16 10154 13 8633 11 2723 19 4830 3 3723 22 7738
2642 0.92077593827686188 4.635619127746061 2.6662286262330634 122 127 130 1.6313230951917421 10 8288 17 6600 13 8676 12 11480 11 1897 8 4597 9 8237 14 1958 19 3284 7 5578
2643 0.68183319975204337 4.7881320024385987 2.4969842296910492 146 150 151 0.77579776694657454 10 8332 13 8696 12 10785 11 1918 8 3934 9 8228
2644 0.68183319975204337 4.7881320024385987 2.4969842296910492 146 150 151 0.77579776694657454 10 8333 13 8697 12 10786 11 1919 8 3935 9 8229
2645 -0.81187839847453991 4.8374932456535458 2.5000107856967433 162 164 163 0.23260910043253158 13 8702 18 9817
2646 -0.87855693026018666 4.8735566320218107 2.4625309689452868 142 144 143 1.1480856559686723 17 6648 13 8709 12 11445 18 9823 11 2326 14 1777
2647 0.67189975897273768 4.851916879470231 2.4226115512876896 164 166 165 0.79772886644255792 10 8353 13 8711 12 10814 8 4602 11 2796
2648 0.7457567079440629 4.8698645404788632 2.3937172557453041 166 168 167 0.84793632179770539 10 8995 13 8719 12 11521 8 4611 9 8650
2649 -0.73568901685863808 4.9197468847670676 2.3955934988428482 141 142 141 0.8353373650532413 10 9004 13 8722 18 9319
2650 -0.61417794556327854 5.032342355915203 2.2614382008593052 163 165 160 0.70303081421974978 16 9680 13 8734 12 11483
2651 -0.61417794556327854 5.032342355915203 2.2614382008593052 163 165 160 0.70303081421974978 16 9681 13 8735 12 11484
2652 -0.62195868235112717 5.0641762306921052 2.229235595025834 139 141 140 0.54160183952845153 10 9451 13 8741 11 2346
2653 -1.3198649195980714 5.0930408428947391 2.2067529391761682 152 152 150 0.88261453067115392 17 6699 13 8744 18 9868
2654 -1.319902220024161 5.0930571745334943 2.2074977150638131 152 152 150 1.1259652074848523 17 6698 13 8745 18 9867 14 1805
2655 0.81714945079957058 5.043300612079971 2.1765592287789857 177 179 178 1.3035991746230251 10 9017 13 8746 9 8669
2656 -0.81121627406812336 5.1124530123004073 2.1793490394950608 185 187 186 0.47220163744467886 17 6692 13 8750 12 11488
2657 -1.0757127580847718 5.1175799673629374 2.1702757263924397 157 158 153 1.1284458819955843 10 9463 17 6067 13 8753 18 9369
2658 0.63756448101694474 5.0825717843783078 2.1407792333351052 153 155 152 0.92031030753731347 10 9024 13 8760 8 4635 12 10914
2660 0.49642516728470715 5.122711769765818 2.0962043021139354 195 196 198 1.0245027102558149 17 6667 13 8780 12 12022 8 4625
2661 -0.22849888346803193 5.1730663225905005 2.0697092024148649 187 189 188 0.88581940928235647 10 9055 13 8789 12 10847
2662 0.57392722948948127 5.1510261838192859 2.0545284176113467 140 140 140 0.79068353455120188 10 9480 13 8790 12 11568 8 4637 14 1817 11 2413
2663 -0.19873915358805042 5.2123838734952805 2.046958215388798 171 173 172 1.2382307745815859 17 7228 13 8804 12 11999
2664 -0.19764723327588177 5.2291613062828963 2.0194972815428267 183 187 188 1.2965528330323266 17 6085 13 8808 12 9843 11 1421
2665 0.80668992633139258 5.2061490427025161 1.9787835214078962 192 194 193 1.6571776226011219 17 6053 13 8811 8 4662 14 1649
2666 0.61980267271107237 5.2270969692170333 1.9660418260358821 181 185 186 0.64808606050094097 17 6694 13 8816 8 4648 12 11590
2667 0.13790475272763944 1.0767369973227985 1.7074651365135898 160 121 88 0.2710357685377458 10 9132 13 8837
2668 -0.22141940589948236 1.9736088823666893 2.1742441040676295 164 135 105 0.99184926737555978 17 7029 13 8893 14 1897
2669 -0.61674638636616885 2.3489416759737654 2.4982819003239936 128 93 61 0.8785514245481677 10 9271 13 8920 14 1910
2670 -0.14860351693042226 2.8465492569638884 2.4693359865940305 159 125 92 0.26631812579924735 17 7085 13 8948 12 12235
2671 1.2720721431238697 3.5943363031323465 3.9057194814847782 156 157 152 1.0466785283698741 17 7102 13 8962 12 12263 11 2747 8 5450 9 8903 28 9942 7 5858 23 9539 27 12002 1 2277 29 2801 6 2817
2672 -0.16335113045821492 3.5658520722694935 3.5316261542535798 181 194 202 0.5393209012021708 10 9688 13 8963 15 10847
2673 -0.0944251991382693 3.5736778289622433 3.4931174145332919 159 170 172 0.97091976372157995 10 9337 13 8964 15 11104
2674 0.78139033591811802 3.8046315504062713 3.667287991515872 135 135 133 0.61731303033752616 10 9350 13 8970 8 5447
2675 -1.3967798777670715 4.1065712173425357 3.4013112595834896 150 155 158 0.84259870188878128 10 9372 13 8983 12 11892 15 10862
2676 -1.8802293631774774 4.1832818181231204 3.3222991263766417 193 195 194 1.1191553875347591 16 10549 13 8995 18 10472 11 2726 14 2160 19 4998 3 3719 22 7734
2677 -1.9215402396186123 4.1912300601270358 3.31342697926496 189 191 190 0.95519168836955415 16 10552 13 8997 18 10475 11 2725 8 4410 9 7999 14 1938 19 4999 3 3159 22 7736
2678 0.79419829870509562 4.4173153004986814 2.938742344917435 173 173 173 0.91850797602578282 16 9548 13 9014 11 2772 8 5461 28 9669 18 10100 1 2261 6 2815
2680 0.96585047109967459 4.5796694336217154 2.7355115169172954 114 117 116 1.2106323586443606 10 9413 13 9027 12 11958 11 2783 8 5485 9 8944 14 2180 19 4232 3 3637 7 5719
2682 -0.75339603799627686 4.8118254363463979 2.5299219465231988 150 152 149 1.2299709404973009 13 9042 12 12295 18 10162 16 10187
2683 0.57367527284108777 4.7901092822942815 2.5023543707587383 164 166 165 0.94812215349295192 10 9424 16 10162 13 9044 12 12314
2684 0.86181286194377682 4.7834260221436802 2.4954440085691489 151 151 151 0.64007687853584216 10 9423 13 9046 12 11975 11 2365 8 5501 9 8956
2685 0.040620230367287659 4.8327214214399072 2.4752374409650866 188 190 189 1.2183091930032657 16 9633 13 9048 8 5067
2686 0.65668481460992112 5.0290330491739006 2.2076218562888434 164 164 164 0.76395506106732436 10 9447 13 9062 12 12014 8 5117 9 8663 9 8969
2687 0.72423149486738725 5.0622141954012383 2.1635872577756921 162 165 164 1.3806167192876271 10 9452 13 9065 11 2829 8 5126 9 8976
2688 0.63060517559878781 5.06390673520497 2.156021813360165 150 149 145 1.0062581844402401 10 9455 13 9068 12 12018 11 2399
2689 0.50960629724705331 5.0809478788042801 2.1416710418287024 188 188 188 1.7852008245424258 17 7191 13 9069 12 12346 8 5103
2690 0.26379856055157319 5.133602568108695 2.1026421413203069 186 188 188 0.89703799239958737 10 9785 17 6678 13 9074 12 12015
2692 -0.38890676978832922 5.1695429710770124 2.0888063422501211 171 173 172 1.3692819835330936 16 10222 13 9076 12 12319 17 7556
2693 -0.8412131138265474 5.2155213113280023 2.0653652233866651 180 182 181 1.1943322793113096 17 7236 13 9084 3 3184
2694 0.20087323460061043 5.1776886880355661 2.0422664257981222 163 165 163 0.68180636685612805 17 6690 13 9085 12 11555 11 2396
2695 -0.82104402885988848 5.2185891965207842 2.0604208254729586 117 118 120 0.45763001508304341 17 6720 13 9087 11 2791
2696 -0.82104402885988848 5.2185891965207842 2.0604208254729586 117 118 120 0.45763001508304341 17 6721 13 9088 11 2792
2697 0.54304472880669497 5.186262844453414 2.0129990538409608 186 186 186 0.69962697247824723 17 6054 13 9091 11 2830 8 5124
2698 -0.40584087250550499 5.2474514379002182 2.0012302242904334 150 152 150 0.32381699951268444 17 7568 13 9097 12 11993 11 2803
2699 -0.44237063995619114 5.262553605877307 1.9830205468508775 145 150 147 0.48154587419156086 17 7243 13 9100 12 11997
2700 -0.44237063995619114 5.262553605877307 1.9830205468508775 145 150 147 0.48154587419156086 17 7244 13 9101 12 11996
2701 0.58692045732237952 5.2326143368891964 1.9565113449910734 153 155 154 0.87406888813405992 17 7224 13 9103 12 12041 11 2843
2702 0.29832067391064965 3.1309437621520977 2.6567689709023461 162 128 91 0.20397935359062616 10 9681 13 9216
2703 -0.028059474596590243 3.7768150917341878 3.4866989169259828 117 119 118 2.7863759306754594 10 9352 13 9235 18 10415
2704 -2.0144203627237589 3.8812972432204029 3.687472992623797 143 144 138 1.3306073315261264 16 10804 13 9236 12 12242 18 10851 8 5383 9 8836 3 4403 22 8072 21 3410
2706 0.86515574204771339 3.9242394715775575 3.5249728770891426 161 161 161 0.67381978917897711 10 9921 13 9240 11 3377 1 2460 29 2963
2707 0.86479825043012737 3.9230576449543459 3.5253303390118691 161 161 161 1.3298264091488352 10 9922 13 9241 11 3376 1 2461 17 7486 29 2964
2708 -1.5165034400694513 4.1419158375648939 3.3737324135073155 113 117 118 0.48417271138404344 10 9717 13 9249 12 12250
2709 -0.63438325445652444 4.1328345655249592 3.3390294961349656 155 155 153 2.5783758728720585 16 10527 13 9251 12 12493 18 10434 9 8883
2710 -1.9615624196768437 4.1865504307939805 3.3179934439901562 154 156 152 1.1600039214375091 16 10817 13 9253 18 10686 11 3358 8 5394 9 8849 14 2375 19 5150 19 5270 3 4148 22 8071 2 2250 23 10092 24 4898 26 9624 20 1349
2711 0.25211312824262128 4.3048903876476858 3.0947374670854653 153 153 151 0.4952205287522527 10 9939 13 9264 12 12505 18 10424
2712 -0.56353899419342657 4.5802455799795041 2.8015504384191892 157 161 161 0.65972771370275396 10 9740 13 9267 8 5042 9 8583
2713 0.95995520994560513 4.7040246860628256 2.5928580176601663 186 188 187 1.4066123727294091 10 9751 13 9271 8 5867 9 9340
2714 -1.6099503016847982 4.8166355801228669 2.5527732626135204 165 165 163 1.3885266157168512 17 7537 13 9273 18 10484
2715 0.83932052374391741 4.8959950586179986 2.3580752206153237 196 198 197 1.2289214586428303 10 9761 13 9283 8 5509
2716 0.52586675470603794 5.1172753698623579 2.0979938153437403 187 189 188 1.189644348224085 10 9784 13 9304 12 12547
2717 0.59539846106353078 5.1485366257846152 2.0684523440901237 191 193 192 0.78772413298863009 10 9789 13 9307 8 5516
2718 -0.38503994536896274 5.2250312301565467 2.0204284681224487 195 197 196 0.5933799264405254 17 7562 13 9316 12 12325
2719 0.82982576467629476 5.1915216379572495 1.9935557514881617 197 199 198 0.87981465315412211 17 7208 13 9318 12 12361 8 5522
2720 -0.32574767273310262 5.242226939998071 2.007432032281526 187 192 189 0.49103966501435714 17 7565 13 9319 12 12335 11 2810
2721 -0.46037426571407231 5.2562435714332638 1.9867076727368111 186 187 188 1.2952715988198233 17 7241 13 9321 12 12330 11 2802
2722 -0.029263890272953744 1.7265458062816459 1.9904181237902245 87 56 47 1.0632785992093907 10 10034 17 7427 13 9380
2723 -0.13025136058629477 3.5779032578356977 3.5237007398236955 62 140 170 0.48499211595369945 10 9912 13 9418 15 11105
2724 -1.8658539402593064 3.9036515798459099 3.6594123838477928 169 169 161 1.838657346215091 16 10997 13 9426 18 10940
2726 -1.9353593517443131 4.2174354038757214 3.2863960756895474 182 186 185 0.65114492420641512 16 11007 13 9436 18 10947 9 9120 22 8198
2727 0.94638267669501774 4.6846481120596986 2.6111183014211199 154 156 155 1.2817549353103532 10 9949 9 9338 14 2388
2728 -1.5339632972872479 4.855123470808663 2.5195845833527608 187 188 186 1.3695547376379511 16 10837 17 7776 13 9455 18 10694
2729 0.54887056457452199 5.1995061753783478 1.9958893050383482 146 146 146 1.1504262020704192 17 7781 13 9476 12 12719 11 3428 3 3674 2 2166
2730 0.54972327980825841 5.2003174007437352 1.9972654412330588 146 146 146 1.0529106998281144 17 7782 13 9477 12 12720 11 3429 8 5872 14 2530 3 3675
2731 0.6299780684934102 5.2047251254336544 1.9874829065409276 168 168 168 0.62326133878252832 17 7783 13 9479 12 12551 8 5730
2732 0.18125253133130712 1.4916981524160071 2.0349398273978583 182 161 140 0.78751679736482472 10 10019 13 9525
2733 -1.6990025086376062 1.8989311042351376 6.0261397642930437 192 194 191 1.6792197579392385 17 8004 13 9548 14 2674
2734 -1.6981656045339337 1.9820799334816923 5.9607484590024784 157 160 153 1.1453278210254161 17 7871 13 9549 14 2584 2 2981
2735 -0.028517913703680953 2.6694268139708131 2.5071227090852064 186 157 125 0.40344858826618085 10 10063 13 9557 12 12633
2736 0.021689541713947873 2.6707287230081183 2.5579114933263463 162 122 87 0.94432336211897239 10 10064 13 9558 12 12881
2737 -0.84234616409503738 2.7750421978416746 2.7681739122462559 163 143 118 1.9076134417872601 10 10065 17 7885 13 9560 14 2609
2738 -1.0330390565414533 4.0976141700668842 3.3857453560670203 142 142 140 0.49325334946643501 10 10092 17 7751 13 9582
2739 -1.5454813141672203 4.8083113452928847 2.5532760636525698 149 149 147 1.2871772666189627 16 11150 13 9600 14 2512 3 4419
2740 -1.5454813141672203 4.8083113452928847 2.5532760636525698 149 149 147 1.2871772666189627 16 11151 13 9601 14 2513 3 4420
2741 -0.33048309197930759 4.8785161388043017 2.4358638734069884 178 180 179 1.428438397214876 10 10118 13 9605 12 12692 18 10666
2742 -1.5811694205412286 4.9177215052660337 2.4340925447118078 158 160 157 1.6470508387096277 17 7930 13 9606 14 2516 3 4156
2743 -1.3877185960979699 5.0032866569223566 2.3208289721577322 163 163 161 1.1512576163249613 17 7936 13 9611 18 10866 14 2520 3 4155
2744 -0.10892770413453408 5.163073434410383 2.0876611370914411 185 187 186 0.87443939398752746 10 10124 16 11032 13 9621 12 12704 14 2526
2745 0.15084329287333884 1.640303686151577 2.0015801617943607 83 131 207 1.3102536358879127 10 10164 13 9663 12 12865
2746 -0.62018192232648994 3.8638565573199766 3.627510014624554 104 110 108 0.49308814115981131 10 10202 13 9696 12 12890
2747 -0.61397876446440336 3.9232870888469167 3.5068757700774533 147 149 148 1.6698025909624512 10 10204 13 9698 11 3541
2748 -1.3854980333393425 3.9256481543698447 3.1754778333629128 167 137 111 1.0556015478714307 10 10206 13 9700 12 12798 15 11421 17 7902 14 2624 16 11000
2749 -0.95927872322031393 5.1214450932955975 2.1671241646475439 161 161 158 0.90169143630321946 17 8075 13 9716 3 4416
2750 -0.95927872322031393 5.1214450932955975 2.1671241646475439 161 161 158 0.90169143630321946 17 8076 13 9717 3 4417
2751 0.16001546690998247 5.1665363338324148 2.0622027062453765 189 191 190 1.4475202113286039 17 8074 13 9721 12 12840 11 3696
2752 0.58734554649226145 5.2063622666630032 1.9893388416948485 188 189 189 0.65260658894709234 17 7941 13 9724 12 12846 11 3583 3 4114 2 2474 11 3701
2753 0.25425216197740241 1.2241754654806984 1.7169817723501855 186 157 127 1.3714590382331009 10 10260 14 2748
2754 0.087036910446989843 2.1890374470940133 2.3185200045705767 133 90 56 0.33407190037493789 10 10275 13 9750 12 12942
2755 0.78298732429171969 3.7783153802688805 3.6938609115126639 142 142 142 1.538279074778742 13 9771 12 12970
2756 0.24244714112940011 4.4564088927206313 2.9163031856746615 195 196 198 1.3418046269865271 10 10363 12 12975 8 6151
2757 0.81791632672177561 4.8549051000247943 2.4148536417101401 194 196 195 1.3133030320524139 10 10310 13 9783 11 3772 9 9598 14 2706
2758 0.032532302819003982 4.9307437072338072 2.3531694964588605 201 202 204 0.49373456546766231 10 10313 13 9785 12 12900
2759 0.28367411348715227 5.097743600271337 2.1480711510883195 192 194 193 1.4022664404906653 17 8069 13 9790 12 12903
2760 0.62379488598852451 5.1323836092862134 2.0829449975256824 188 189 191 1.0733859724967445 17 8152 13 9792 12 12982 8 6155
2761 -0.069319944565506011 2.2752795488758357 2.3314992686392682 161 116 83 0.6958799987597396 10 10339 13 9830 12 13004
2762 -0.18049754297031453 2.769188352573432 2.4748163962481335 151 122 90 1.3460421828758484 10 10385 13 9835 12 13011
2763 0.17958248297508994 1.2178204609787182 1.7417786562285458 63 64 68 1.1380774559440119 13 9863 14 2828
2764 0.14533067223178858 1.3091116798803375 1.7367937690579662 208 186 162 1.2345531918443249 10 10370 17 8210 13 9865
2765 0.64601079605956435 3.641629783036179 3.331272118098525 195 175 151 2.0817891742324863 10 10356 13 9884 12 13059
2766 -1.0481890952424746 3.9454206165220698 3.3254858884410328 168 148 124 1.6080955569143756 13 9887 15 11517
2767 0.73196852047881256 4.7437112758261577 2.5469871166643285 202 203 205 1.7349145595430617 10 10398 13 9893 12 13068 11 3904 8 6250 9 9684 3 4744
2768 0.24370947647051514 2.2377602023024452 2.6906265049346429 195 204 200 0.0598855376764557 10 10421 13 9907
2769 0.57550073098300347 2.1452669482261095 3.0867249329610753 164 127 98 2.3920593929163809 10 10491 13 9961
2770 -0.85553204483259615 4.8446076280606718 2.4922355907928524 184 186 184 0.82171135640615123 10 9431 16 10192 13 8703 16 9655
2771 -0.24494779422296031 1.0788042795356068 0.95794334320686203 218 219 211 1.8635780829626687 10 9974 13 9334
2772 0.1002899233391072 1.8316923425390446 2.0986435729619362 120 76 48 0.38463545925192655 13 556 12 115 9 2673 8 132
2773 -0.3380228899530705 1.9490709081842978 2.2123945290862084 132 102 74 0.73190899580471169 10 3487 13 4675 12 152
2774 -0.036647185451827664 2.0006670474128181 2.1624058002945672 160 129 101 0.40768558115845838 13 950 12 316 15 974
2775 -0.22471240417931884 2.3443518571409219 2.3162795469741644 176 145 116 0.28614561940340155 13 2079 12 1172 15 2189
